0.25422798938751195,0.234550994110107,0.272120993804932,0.24556700534820602,0.254420011711121,0.259153001976013,0.24612399883270297,0.258620994758606,0.256285994720459,0.24044000453949,0.225008004379272,0.22202700920104995,0.218825,0.25184299297332796,0.270190995407104,0.24670800514221197,0.318347995948791,0.23627900428771997,0.27173199005127,0.28146099395752,0.268286007118225,0.288968008232117,0.249779003334045,0.227032011222839,0.270092004013062,0.287505000305176,0.22915500946044898,0.273669999313354,0.20127000160217295,0.19879900760650598,0.19697501010894802,0.24750499076843302,0.288854997825623,0.303407996368408,0.19535199947357196,0.20310398883819597,0.20392400569915797,0.19590999431610095,0.321499007415771,0.23490099258422897,0.24616600818634,0.212624996376038,0.20993100948333698,0.241773002815247,0.20776800460815398,0.20608999080657997,0.21042599029540998,0.19889199085235598,0.18408901042938197,0.164461010169983
0.34412199802398696,0.39214300460815404,0.31986100025177,0.24510900325775103,0.266781991195679,0.23935899085998497,0.260497992706299,0.258803003501892,0.30017699546814,0.27708200759887697,0.24916600532531696,0.22593399829864502,0.270619004440308,0.18796901054382298,0.19444600887298602,0.204788010787964,0.174032991600037,0.15475799388885497,0.16160699672698997,0.17298199481964094,0.21164299793243396,0.200013988685608,0.18665799446106002,0.18216299362182597,0.192616003227234,0.169828003120422,0.17511300392150897,0.178360002708435,0.183984010887146,0.151633005809784,0.149210994911194,0.16279401130676296,0.190415995788574,0.15361298866272,0.158388989639282,0.136057000827789,0.16109599418640097,0.15629300422668502,0.16630899257659898,0.20385801143646198,0.178753011894226,0.140547996234894,0.152786999416351,0.16198300666809096,0.133694999885559,0.17234300918579099,0.161512010765076,0.161120002937317,0.15691100902557398,0.148370998573303
0.203364008140564,0.24428600616455098,0.17550300903320298,0.191473000717163,0.22555000133514397,0.19795998878479,0.17107700653076197,0.17167798824310299,0.18549300975799599,0.173054998588562,0.218823998641968,0.19773299045562698,0.19990801162719696,0.18018099613189698,0.16220199413299596,0.152665000629425,0.15799400157928495,0.14171599693298298,0.22179700679779102,0.167053001594543,0.196853011322021,0.18262700386047398,0.17460400409698495,0.17570499725341798,0.18557199783325196,0.17258199996948198,0.18579699344634998,0.18165900058746298,0.161785000038147,0.161282008361816,0.14743300027847295,0.14055300302505497,0.14708500452041595,0.16195599384307902,0.147781997394562,0.16598600692749,0.17253100223541296,0.14281600065231298,0.14488000221252395,0.12085999794006301,0.145665996742249,0.16475500411987298,0.149895995330811,0.14462500162124597,0.16299599952697796,0.151829999160767,0.14903599567413295,0.16036400146484397,0.163220995140076,0.13796899862289397
0.117748003673553,0.18842698879241898,0.172096007537842,0.17273799724578898,0.167539995384216,0.160681002807617,0.16182801074981695,0.13590900249481197,0.16271199531555197,0.17740699596404996,0.15701200313568098,0.16150500125884998,0.21938599891662602,0.138290005397797,0.208219998550415,0.22245599575042696,0.13772999591827395,0.13001499719619797,0.136097996902466,0.163079994392395,0.169950001907349,0.170448010635376,0.172625010681152,0.180441992950439,0.17783500499725302,0.14841399736404398,0.14560700006485,0.15512699432372995,0.198679011535645,0.12984599418640097,0.132953994941711,0.09735700435638402,0.108085995388031,0.15121700115203895,0.16003898925781201,0.156197994422913,0.16993800945282,0.13696699686050395,0.126688998413086,0.10632900543212899,0.14524299449920697,0.15247099943160997,0.14970599956512498,0.151790004444122,0.16345199890136697,0.149145000648499,0.15419198818206797,0.15571600742340097,0.146694999408722,0.159800999832153
0.16083199329376197,0.15362500495910597,0.15161599464416498,0.114981001091003,0.11835599489212002,0.148904996585846,0.150706999969482,0.11802399702072099,0.12472299880981398,0.13091300077438395,0.145024996471405,0.13113899774551396,0.122335999679565,0.14423000164031996,0.149579005908966,0.15108000583648695,0.11881399698257401,0.10102299995422402,0.15344299621581997,0.19583501167297396,0.14308499641418498,0.18278300113677998,0.16944999046325698,0.13593799419403096,0.131600003910065,0.117523997497559,0.167629998397827,0.16625201053619398,0.12578399724960299,0.12061800308227501,0.17096499748229999,0.16975399799346902,0.115285998058319,0.086533003520966,0.130193000507355,0.15484000988006597,0.15415698833465596,0.111619001102448,0.085830002498627,0.10230800457000701,0.130786996555328,0.13027799673080398,0.118058996868134,0.10433500356674201,0.14308599777221698,0.15224500246048,0.15579799957275398,0.12026500053405799,0.094724994373322,0.129716997814178
0.12755300350189197,0.152168005180359,0.14070699758529698,0.13073399610519398,0.105382996273041,0.134705000591278,0.16983200855255098,0.19107000179290795,0.15919501132965097,0.11150299854278602,0.130573003959656,0.11352099723815902,0.13612200565338095,0.11503799505233801,0.16709698982238796,0.147229998779297,0.15904099292755097,0.10494700021743801,0.14824400491714496,0.13961999959945698,0.13810699529647796,0.15465199298858595,0.14342799730300898,0.14114000148773198,0.09347299880981401,0.09634099550247201,0.111975997161865,0.17984699554443395,0.12112399883270299,0.162269991111755,0.19989599533081098,0.16033899135589597,0.129765003395081,0.13019099779128995,0.106118004989624,0.159858005714416,0.176022999954224,0.077183001708984,0.11195400304794302,0.17625400371551497,0.09171900100707998,0.109579997730255,0.10685899801254299,0.11726199932098401,0.11911800451278699,0.16883398838043195,0.101044004631042,0.076289003562927,0.079342001152039,0.08020300216674801
0.10499500579834,0.12678299493789696,0.202541988563538,0.13335099763870195,0.13636999673843397,0.22206000633239703,0.209764998626709,0.16710399932861297,0.16785699672699,0.240823000144958,0.13682599611282398,0.10916599578857401,0.139377003383636,0.13229100055694598,0.141078000736237,0.10144399948120099,0.131832998466492,0.16984500236511196,0.11925099439621002,0.149663000774384,0.10790199584960901,0.09152600116729702,0.096542995643616,0.13017800397872897,0.08789099998474102,0.10159400053024302,0.16394600219726596,0.131334000301361,0.10088500328064,0.168223994445801,0.20517401046752898,0.14038500137329096,0.12641699857711797,0.11778699703216601,0.08625699825286902,0.105935996246338,0.13267200536727897,0.07475300378799402,0.10011499471664399,0.14904000110626198,0.11093199796676602,0.093944996070862,0.076113002967834,0.09730099983215303,0.11839199609756502,0.093701999855042,0.08975099868774401,0.134715002250671,0.081593995761871,0.07646899766922
0.08843199558258101,0.121385997009277,0.10327899999618499,0.09960599489212,0.11166300125122099,0.13616699523925796,0.118322997760773,0.10582299776077299,0.117241996002197,0.11216999835968001,0.16401299781799294,0.19523801155090298,0.18964099235534698,0.14670899457931497,0.19792200870513899,0.102305000495911,0.146839004230499,0.178825991821289,0.175786989402771,0.145205002498627,0.132933002185822,0.11779599733352701,0.08916700429916401,0.10639700241088902,0.08301599569320701,0.09922199792861901,0.14675200529098498,0.17597300357818596,0.11710800476074203,0.264738004875183,0.14483700342178296,0.146253996562958,0.11586299486160302,0.08398800439834599,0.07861300058364899,0.080182998847961,0.11553899593353302,0.08141799516677901,0.082119005393982,0.134860997867584,0.101104002666473,0.127291005325317,0.07967700309753402,0.09156499452590901,0.074658005905151,0.081945996952057,0.08195900268554702,0.14461199588775597,0.090236001682282,0.08085699625015301
0.104757004451752,0.103039997291565,0.096200996112824,0.084017997455597,0.08179699726104701,0.20974900074005098,0.269390004348755,0.12488099880218496,0.11068000144958502,0.10789199419021601,0.12327499933242801,0.133202999305725,0.11856699533462502,0.12778300590515096,0.14309900350570698,0.16135401077270495,0.135088997554779,0.13020300216674796,0.24159099407196,0.163362997245789,0.09724799938201902,0.12606200523376498,0.130762999725342,0.111326997947693,0.065546005439758,0.106883996200562,0.149836998653412,0.14544400520324696,0.09871800489425699,0.158304994773865,0.148390000534058,0.161220997047424,0.11374300069809,0.07574400253295901,0.07855099983215301,0.101008003425598,0.071158998680115,0.082862001132965,0.074220996570587,0.11175300426483202,0.119080000591278,0.07738299913406402,0.08433100528717001,0.072470002841949,0.109894996356964,0.079488998126984,0.07614900417327901,0.088351994228363,0.06972200222015401,0.06961600131988502
0.17451099700927697,0.16307501144409198,0.139022999477386,0.11713799781799301,0.14791700191497797,0.15145700521469097,0.16374201126098598,0.19450799770355198,0.16489800758361794,0.14467399663925196,0.10242599792480502,0.11772599763870199,0.10935299940109301,0.11492399520873998,0.16536399669647195,0.186093991470337,0.178478997421265,0.13012999839782696,0.176114004325867,0.206698005867004,0.16994399375915498,0.084460001659393,0.08111600227355999,0.08741700000762899,0.06733300037384,0.086273997497559,0.136833005619049,0.17015499420165997,0.08451699562072802,0.15385701007843,0.15392898864746096,0.110698002052307,0.077912002277374,0.073513000679016,0.07213899440765402,0.15495700187683098,0.07102599687576301,0.09151800222396901,0.07651800460815401,0.075179999542236,0.11277399606704701,0.073054998588562,0.08469499893188502,0.097774999809265,0.073393994045258,0.127963000011444,0.093474000167847,0.08160499877929701,0.08920200414657599,0.079133003425598
0.10003200120925902,0.11580499954223601,0.103615003299713,0.093255000782013,0.122784000110626,0.116500001621246,0.10752300567627,0.14128100223541296,0.17840999908447297,0.10613799638748202,0.11704700536727901,0.13772500104904195,0.133141999912262,0.14472599573135397,0.19173800296783394,0.164047997665405,0.16520098991393994,0.17056500263214097,0.11656599588394202,0.261004989814758,0.176651995849609,0.23207001037597702,0.21844600982665996,0.11953199453353901,0.06673199481964101,0.10148499555587799,0.14134400434494,0.16681300945281996,0.115994005870819,0.134840994548798,0.137044995498657,0.11632500238418599,0.10228800125122099,0.07702299900054901,0.068135994148254,0.09192799873352099,0.12197800226211498,0.170448010635376,0.157876008224487,0.072053998184204,0.15411199874877896,0.073581999015808,0.088345998001099,0.08141199893951402,0.075035994720459,0.140430002880096,0.15942000694274894,0.07438999958038299,0.07892100162506101,0.14067099637985198
0.09651300258636498,0.109533994865417,0.14721299953460698,0.13762599773406997,0.12781600303649898,0.15684000797271702,0.12490000076293901,0.16141599960327097,0.15965298957824697,0.09648199625015301,0.08723999805450401,0.10564300365448,0.10755299873352099,0.08824899740219101,0.119043999385834,0.13284500188827497,0.17668699569702095,0.11320599861144999,0.13645999975204498,0.12217900104522701,0.184077995491028,0.15718099422454795,0.147287994098663,0.19255499191284198,0.069612997245789,0.131143003177643,0.166524999809265,0.119930999946594,0.15327100105285596,0.10631700105667101,0.12876500434875499,0.09375500030517601,0.108483999443054,0.08271300144195602,0.077887004089355,0.073760002326965,0.215116995048523,0.195408003997803,0.12126499958038299,0.068621998500824,0.16286699123382598,0.067377000522614,0.076541000080109,0.131315999698639,0.08609400339126601,0.12553300209045398,0.124157005023956,0.06760800428390501,0.129769998264313,0.117793005180359
0.102387004566193,0.09587499446868901,0.12454699821472201,0.10332999773025499,0.14156400508880596,0.11643399543762202,0.19293898887634298,0.154170005989075,0.16632999725341802,0.09941499776840203,0.09713999576568601,0.09265499658584599,0.10158500022888199,0.07682600564956701,0.119040005874634,0.103090005588532,0.09844400234222402,0.089666002464294,0.15910500831603996,0.14316000289916997,0.151869004440308,0.13698100395202595,0.140319996547699,0.146826999855042,0.056423001956940014,0.127394002151489,0.15204300231933598,0.11202300138473499,0.16844200439453094,0.24002498931884803,0.08578600234985402,0.140811997127533,0.09121699876785301,0.113793998432159,0.066745000553131,0.082127004337311,0.151511996459961,0.134071999263763,0.11132900066375699,0.07039800233840901,0.07347399539947501,0.06726799554824801,0.08756800241470299,0.17435600109100302,0.07305299587249801,0.15065800495147696,0.096889000606537,0.06530099458694501,0.11579599924087501,0.129503005218506
0.09170899934768699,0.090228002738953,0.158743994903564,0.102792995643616,0.08377800531387301,0.097917001914978,0.14635400123596198,0.121349995803833,0.135593002510071,0.101564996910095,0.08697499580383301,0.07456499881744401,0.07709600276947,0.118537002277374,0.09299699611663802,0.07234999485015901,0.09494499511718803,0.09267800397872901,0.16195599384307902,0.154022997093201,0.13074199504852296,0.144154005718231,0.131767004203796,0.11661799497604398,0.069173997116089,0.07465199775695801,0.16103200263977002,0.11628900117874101,0.16668299980163598,0.16006199665069598,0.191443007659912,0.0847269947052,0.18682200260162396,0.09998299427032499,0.05443100280761702,0.10987300224304199,0.11256199426651002,0.10463100023269702,0.08161399908065801,0.07758100576400799,0.069557004642487,0.067918997478485,0.203747003746033,0.14708699531555197,0.08679600305557301,0.113541000556946,0.07904600448608402,0.066101997566223,0.098221998882294,0.10770999736785901
0.091857999038696,0.077972000312805,0.111561995220184,0.111646002006531,0.08154600210189801,0.09994999713897702,0.127148001861572,0.09847200460434001,0.12924099512100196,0.13366599626541098,0.08563000507354702,0.06795800275802599,0.07192800588607799,0.080409997177124,0.08597200460434,0.08911099977493299,0.084101002883911,0.06804500169754,0.21966900177002002,0.12024800128936801,0.108588998985291,0.134415000152588,0.11759399719238299,0.20657300300598097,0.133015995693207,0.06046399421691899,0.117336004447937,0.12040299720764201,0.13356600351333597,0.143839996528626,0.17126099414825396,0.10917300529480002,0.09131199665069602,0.12011499948501601,0.06090399570465099,0.07293199844360401,0.228450005722046,0.17681199855804397,0.171754997444153,0.08411599941253702,0.070600002479553,0.062190001678467,0.14152000494003297,0.16286699123382598,0.106505995464325,0.08111199684143101,0.07098999567031901,0.07514099426269501,0.072317999076843,0.06605699605941799
0.07092500276565601,0.067950003814697,0.106606000137329,0.084716003608704,0.097433000278473,0.09842000551223799,0.11343000478744501,0.09013300485610999,0.10803299493789699,0.19541599102020296,0.09821500129699702,0.079556995105743,0.06808399505615202,0.07863599605560302,0.08658199853897099,0.10255499429702801,0.13781099863052398,0.076996999454498,0.084849994850159,0.10987599439621,0.10958500452041599,0.088342004489899,0.09708400316238401,0.12076800413131701,0.158170002174377,0.067317002487183,0.11194700546264601,0.160843008232117,0.13900900430679297,0.14656199760437,0.12622000522613497,0.125246995162964,0.06520599670410201,0.09909200019836399,0.070799999904633,0.066447001171112,0.15455700702667197,0.151982002925873,0.13984400577545197,0.107122998905182,0.06425899810791001,0.05720199890136701,0.157700007629395,0.15957900829315197,0.129415994358063,0.128282004070282,0.077543001842499,0.08081000394821201,0.08211000509262102,0.12794199533462497
0.07721499748230001,0.066547995281219,0.07217200345993001,0.079501002502441,0.08706499881744402,0.08203900403976401,0.08691499776840202,0.08400699443817101,0.11621800012588503,0.136074000072479,0.19887499160766597,0.157071011734009,0.06245600528717002,0.072586994838715,0.09535899705886801,0.10392300434112602,0.156140011024475,0.210403006744385,0.11401600189209,0.06291200466156,0.084940999221802,0.073683005046844,0.08786099500656099,0.10318899698257401,0.17930399723052998,0.07192099637985201,0.06158999748230001,0.086314004135132,0.125465005111694,0.089560001564026,0.09728999681472801,0.135293000411987,0.075053005886078,0.069768994522095,0.07134999580383301,0.07990500278472902,0.07086899824142501,0.16030299015045202,0.12336500234603899,0.08590699977874801,0.071269994449615,0.07544099636077901,0.11106600112915001,0.14353700227737398,0.19085799999237096,0.08329899854660001,0.085365002822876,0.0747980052948,0.074563997459412,0.13905200309753396
0.07059100217819202,0.06652399845123301,0.07420600004196201,0.08636700458526601,0.08011600322723401,0.10553099460601802,0.12354399509429902,0.090204005908966,0.13974799461364695,0.12205900497436499,0.16852700061798098,0.20915800876617402,0.136253994178772,0.06460400171279901,0.06872499532699601,0.05597299880981402,0.15536801166534397,0.259293001365662,0.12087799854278601,0.076372998428345,0.068680995178223,0.07765499897003202,0.08826499528884903,0.115285998058319,0.197589009475708,0.147909002971649,0.06157099552154502,0.067497997951508,0.08551799602508502,0.09700600452423101,0.08188700027465802,0.069601994228363,0.06658399648666401,0.063120001029968,0.07904600448608402,0.08243400402069102,0.11341599769592302,0.134589999389648,0.07460500545501701,0.07289300508499101,0.03472430057525641,0.088069003295898,0.14930899686813398,0.182495992851257,0.150783997249603,0.083473997783661,0.07382200307846101,0.073596995544434,0.062213998508452995,0.071478002738953
0.13850499935150096,0.06503899641037002,0.06590799636840801,0.09681499547958401,0.07297299451828002,0.12547300405502299,0.08537699527740501,0.11720699615478501,0.073885005187988,0.07069700307846101,0.13138299531936598,0.133311002922058,0.09017600364685101,0.06799699611663801,0.07036799736023001,0.09272800035476701,0.06765900201797502,0.12339300460815401,0.070507996749878,0.063432996940613,0.06197000093460102,0.08587400264739999,0.085510998439789,0.10497400112152101,0.168287008476257,0.184634988975525,0.17274100131988496,0.06530800409317002,0.06387500114440901,0.066887002658844,0.069649999809265,0.07087499446868901,0.072287994098663,0.074567001533508,0.08599700279235802,0.07133999414444002,0.087291997146606,0.09086399621963502,0.07504699773788502,0.06602999515533402,0.03829849905967711,0.066927998733521,0.14548899478912397,0.155302994918823,0.08240000553131101,0.06898299999237101,0.070073002052307,0.085423999500275,0.07208300180435201,0.063077002239227
0.12060399599075301,0.06543399639129602,0.107742994499207,0.147403996658325,0.053896003437042,0.102511995506287,0.093679004383087,0.068569999408722,0.072554999065399,0.06976099557876601,0.07657299585342402,0.067645996284485,0.057746999931335016,0.061930995655059995,0.07526799983978301,0.14156100101470898,0.12955400295257596,0.13777200527191197,0.061546998691558996,0.074827998352051,0.067331999015808,0.074415999126434,0.12990199871063196,0.168625992012024,0.23657299823760997,0.272656005096436,0.139756005477905,0.157138007354736,0.06085099525451701,0.06543700046539301,0.076010995578766,0.06615200586319002,0.06723499841690099,0.067832999897003,0.069051998329163,0.08030399627685501,0.132853000831604,0.19356800861358597,0.072521000576019,0.08600199766159101,0.063058000278473,0.064758997631073,0.10774900264739999,0.069749003124237,0.044384002161026004,0.063352995586395,0.08423100061416601,0.083206003379822,0.08287400550842301,0.09712800331115702
0.074499004554749,0.06445400066375699,0.06370699949264501,0.073643999767303,0.062529998493195,0.07758000440597501,0.08004799432754502,0.073054998588562,0.072319000434875,0.07908000297546401,0.087811999988556,0.082186001014709,0.07789799518585201,0.069274001789093,0.121829002571106,0.12928799934387197,0.14213899917602496,0.18598000354766797,0.10119300432205201,0.07602700538635301,0.07999200172424302,0.08194399423599201,0.15661300964355496,0.08903699464798,0.11071399993896501,0.197164004516602,0.133375995826721,0.141058998775482,0.119099002552032,0.064363997650146,0.07500199623107899,0.075246995162964,0.063458996486664,0.07177500076293901,0.068934004974365,0.08081499881744401,0.16765798873901394,0.136434000205994,0.07288699693679801,0.06440100021362301,0.08098300046920802,0.074068003368378,0.076326995563507,0.07533499546051002,0.079118996334076,0.07828800029754603,0.078031998348236,0.06931599922180201,0.06701700038909901,0.066127997112274
0.07990700550079301,0.074822002124786,0.07605799980163601,0.07343199796676601,0.069481998157501,0.073648994636536,0.07823000497818001,0.069169002246857,0.123131995868683,0.14690299577712995,0.08010800428390501,0.07506199426651002,0.17454799957275396,0.07896500177383402,0.16969899482727002,0.19868299312591597,0.11908100194931,0.187436001968384,0.15079500026702897,0.07279999799728401,0.070374994945526,0.065562003326416,0.12766500062942499,0.141406994533539,0.09427099771499602,0.228540008735657,0.107856004905701,0.115637999248505,0.14351000137329095,0.06431400127410901,0.07398299522399901,0.05087169952392581,0.06436600036621101,0.077581995201111,0.066653996181488,0.060348003578185996,0.10027900285720802,0.07481899805069002,0.06831600017547601,0.07256700344085701,0.075509005260468,0.07788800544738801,0.07136400289535501,0.076570003700256,0.06350600070953401,0.076048999500275,0.025456499528884895,0.07005999631881701,0.085296004486084,0.091511994075775
0.07131800003051801,0.071731000614166,0.08511100358962999,0.079643004608154,0.07170999593734699,0.069031995010376,0.08742700166702301,0.106364005279541,0.11612599439621,0.14566900081634498,0.17014700717925996,0.13811699695587198,0.14156899995803796,0.071700995635986,0.13169700450897198,0.207610004615784,0.126822000217438,0.19611999340057396,0.180192011070251,0.072717004489899,0.077592998218536,0.07523600406646701,0.106592994403839,0.17680599040985095,0.198176997375488,0.16690201110839797,0.09536400384903,0.11111000127792402,0.09406899757385302,0.088889997673035,0.07491499729156502,0.075199001502991,0.070638995838165,0.06270800180435201,0.08461499757766701,0.08753699607849101,0.067660003376007,0.067705994319916,0.07761999912262,0.067831998538971,0.068206005764008,0.088288002681732,0.075629001331329,0.073831003379822,0.089738004875183,0.072398000431061,0.073596995544434,0.094283002090454,0.07367499418258701,0.07650800294876102
0.078853004646301,0.06789099521637001,0.099128001403809,0.07106299943924,0.067249994945526,0.11832199640274,0.148786001873016,0.137342005443573,0.16092900581359898,0.135088997554779,0.13905599660873397,0.202814000320435,0.154716008377075,0.14617499656677196,0.16715800113677998,0.22705799884796096,0.17998599357604994,0.259552996826172,0.19774300403595002,0.079557996463776,0.08535399980545001,0.07815599985122701,0.074710004997253,0.225098007392883,0.17712199039459198,0.12262299604415901,0.073212998580933,0.065030997467041,0.09921500034332299,0.07527200527191201,0.08260100431442301,0.07619900054931601,0.06857699699401901,0.063503997993469,0.097692995738983,0.119478004646301,0.06841699428558401,0.07011600084304802,0.069017999839783,0.06861999578476001,0.09867200202941899,0.06302099771499602,0.07668799705505401,0.09202000446319601,0.081022995185852,0.04694380111694341,0.07876899785995499,0.068935995769501,0.062985997867584,0.06895700044632001
0.116264002990723,0.061526995372771995,0.070841997337341,0.063134997558594,0.06683799571991,0.14004699535369897,0.132893996906281,0.11414199419021599,0.19253899402618396,0.09781200237274203,0.097867994976044,0.14404700345993,0.17957100219726596,0.195298999023437,0.12061199493408202,0.20673600978851298,0.184679001045227,0.17516800708770797,0.110086994838715,0.075625997257233,0.09585899658203102,0.073692994785309,0.14919200487136797,0.14486500568389898,0.12732300109863298,0.07156800575256302,0.070669000816345,0.07860899515151999,0.06569200105667101,0.07112600154876701,0.08275800294876103,0.06511500425338701,0.059715002250671015,0.058786004257202,0.061715000343323,0.069522994232178,0.072726994228363,0.05817499704361,0.064834004116058,0.07248299665451101,0.07045100278854399,0.05908599443435701,0.069201999378204,0.073106997680664,0.07015400476455701,0.054321997833252006,0.09221100158691399,0.073218005371094,0.07363000459671001,0.061306005191803
0.07092600412368802,0.057480996322632,0.062790995311737,0.065607994270325,0.08370500154495199,0.098985999298096,0.09760000057220498,0.143057995510101,0.16578299350738496,0.14811800069809,0.15207499809265096,0.15600799865722698,0.175417988967895,0.230220001411438,0.061733000946045016,0.10457300491333,0.11335199422836299,0.112422996234894,0.077415996265411,0.08481499500274702,0.082368999195099,0.07638199872970601,0.08400799579620401,0.09870399780273399,0.075457995605469,0.07704899854660001,0.07388200111389201,0.091069000434875,0.083944004249573,0.08538899965286299,0.089282005500793,0.057155996036530016,0.06148299522399901,0.064788001251221,0.07882899589538601,0.066108005714417,0.06490099973678601,0.064080994796753,0.06657100267410301,0.06847199745178201,0.062233000469208016,0.055741995048522994,0.063384001922607,0.067220001888275,0.064636998844147,0.055580001544952004,0.080050998401642,0.062482994270325,0.051784097623825104,0.0525237018585205
0.075967996788025,0.06234900302887002,0.054557996463776,0.06239400453567501,0.075897997093201,0.15758001155853296,0.135084002685547,0.08747699804305999,0.11031599588394202,0.113446002674103,0.10961299486160302,0.154898994636536,0.211215990257263,0.19011599369049098,0.076096003723145,0.06648300237655601,0.119309001636505,0.079667001438141,0.09647100515365602,0.076727002334595,0.07173499412536602,0.08324499673843401,0.06837299413681,0.12135299987793001,0.07870599575042701,0.06907400436401401,0.06509299821853601,0.078941994380951,0.09102000541687001,0.07291199512481701,0.08829099483490001,0.05281850047111511,0.0514419013977051,0.06025499649047901,0.06764000005722,0.060247998905181996,0.066502004337311,0.07941099948883103,0.06713899917602499,0.063880997371674,0.06079600400924701,0.05501800127029399,0.066325002384186,0.07834400482177702,0.092574995231628,0.074335997772217,0.05957199878692601,0.055287998390198004,0.0481163973331451,0.04599829859733581
0.0491432005882263,0.05497099704742402,0.05613899774551401,0.06133299417495701,0.087050002288818,0.139730995368958,0.106975000572205,0.08571099586486801,0.083456998538971,0.08657600231170702,0.07721100397110002,0.147356002998352,0.194824999046326,0.14697499818801896,0.06392700023651102,0.06441000051498401,0.076282995414734,0.10217500276565601,0.08664500064849902,0.06675500221252399,0.065578001213074,0.077005999755859,0.06910000391006502,0.056340997886658015,0.062360995483398005,0.06582099742889401,0.070932000350952,0.094304996204376,0.07877400465011598,0.077088003826141,0.089575999450684,0.048559301567077606,0.06226900167465202,0.0487363988876343,0.064852994155884,0.05803900308609,0.066089003753662,0.071830003929138,0.059434002113342,0.072022002410889,0.05412699527740501,0.05635899848938,0.062745004367828,0.063676005077362,0.061001997661591006,0.063859003257751,0.06667800493240401,0.053637998771667,0.0500702018260956,0.04667980022430421
0.0486154014587402,0.05415100402832,0.04818710036277771,0.05320300407409699,0.08567699737548799,0.075881999206543,0.105725997161865,0.08562800235748301,0.087877994251251,0.069972997379303,0.13374499626159697,0.20373598880767801,0.12402799673080402,0.133436005783081,0.07053100414276102,0.07458099670410201,0.069613998603821,0.14423499650955196,0.08834000177383401,0.073708003234863,0.05885999746322601,0.057740002346039,0.05349599666595499,0.05433999843597402,0.057521002960205,0.05966799802780201,0.078159003925323,0.076237004470825,0.08160100526809701,0.076702004146576,0.071341996860504,0.062757998180389,0.05259529895782471,0.0452319020748138,0.069496005249023,0.058648997020721,0.051822399568557706,0.05310879893302921,0.054020004940033006,0.06571200437545802,0.053913002681732006,0.05569600410461399,0.06186500139236499,0.056909995746613,0.06585200376510601,0.054432004165649,0.060302000713348,0.04742510266304022,0.0445613975048066,0.04452019877433781
0.09391099758148201,0.063769000244141,0.0492936009883881,0.04596430010795591,0.055126994323730014,0.06947399921417201,0.054532998275757,0.06740099735260001,0.07431200094223,0.106624000740051,0.16161500759124797,0.15564200229644798,0.087765997123718,0.070384996604919,0.062796002101898,0.085844999027252,0.11311499423980699,0.11935799665451101,0.08200599498748799,0.06498100109100301,0.057408004474640006,0.053183197450637806,0.05531399793624901,0.056137996387482,0.05033529944419861,0.059844999980927,0.07379700489044201,0.066973000240326,0.08182700223922702,0.064364999008179,0.065151994895935,0.071436994743347,0.05692400283813502,0.049289702844619795,0.05595000333786,0.0499070996761322,0.0473134989261627,0.0467639023780823,0.05089690036773681,0.0498816008090973,0.0517710024833679,0.043993502330780004,0.04268400020599371,0.044345700216293304,0.0472355002880096,0.051636701297760004,0.049165200662612915,0.045338600349426314,0.0437983984470367,0.04119030184745791
0.054918997955322,0.05415499753952001,0.072660999965668,0.04638529963493351,0.048971300792694114,0.05469300098419201,0.069031995010376,0.09679099864959699,0.13172900028228796,0.14030399866104099,0.10125799722671501,0.06739999599456802,0.06758299417495701,0.07103499717712401,0.07752399988174401,0.08709400243759201,0.12994800157546998,0.069730001163483,0.06350199527740501,0.05533999748230001,0.050960200500488315,0.0501676017761231,0.047943299484252896,0.04418209738731381,0.0458474988460541,0.050886600685119604,0.07172400302887001,0.06397300310134901,0.05556200094223,0.052027397823333696,0.0495429987430573,0.054603999328613,0.055820005607605014,0.05396299905777001,0.0511121029376984,0.043461101722717305,0.04105449862480161,0.040935199928283705,0.04423699922561651,0.04804890103340151,0.04448980040550231,0.041840797138214106,0.04030470199584961,0.04507059998512271,0.04445869870185851,0.044621598196029705,0.0459383005619049,0.0413811022758484,0.042646097612381015,0.038233702850341805
0.039702999067306496,0.052353798818588204,0.064061003398895,0.060235005092621016,0.0493273014545441,0.070188003253937,0.10098800010681198,0.08588300294876101,0.07150699443817102,0.06430999584198001,0.101282995414734,0.082693999481201,0.05777700490951501,0.058750003051757996,0.070997994613647,0.12794399805069,0.11993300266265901,0.06653199739456199,0.0497023994445801,0.047831797075271604,0.048015802574157704,0.04445080108642581,0.0417492980480194,0.04448530025482181,0.051735001277923603,0.0426190013408661,0.059348004531859996,0.0470926994800568,0.05253739900588991,0.047061699104309115,0.0391943985939026,0.05859300441741899,0.04988490290641781,0.04505339808464051,0.045915001106262204,0.03966320104599001,0.0386337990283966,0.04223620243072511,0.038022398424148604,0.03607680149078371,0.03577640004158021,0.034657400321960505,0.0358977014541626,0.03743820137977601,0.03437449879646301,0.03888750023841861,0.0382834012031555,0.0384097988128662,0.036677997779846205,0.0352415019989014
0.03783150262832641,0.052518802356720004,0.04052569813728331,0.04421780056953431,0.03976060099601751,0.0396149987697601,0.051119100522994995,0.03968539781570431,0.0454047972679138,0.05784400053024301,0.059486001205444006,0.05019450135231021,0.05429800100326501,0.06960100479126001,0.12135600395202599,0.10337000436782799,0.06878099985122701,0.046859001588821406,0.04197019882202151,0.048957901668548603,0.04072139806747441,0.0430311018943787,0.046701800298690796,0.042145698738098106,0.045143198442459107,0.0472133988857269,0.04705110139846801,0.044375800561904905,0.0452466005802154,0.04090250082015991,0.0413374001502991,0.04777759857177731,0.04759110159873961,0.048160099458694414,0.04227660245895391,0.03986579723358151,0.03780699915885931,0.0391079003334045,0.035586702299118006,0.033583199453353904,0.030254101228714005,0.0311420018196106,0.03664560265541081,0.037832301330566406,0.03058990187644959,0.038688700866699205,0.039952802133560214,0.030687498521804794,0.031331198883056605,0.035186302137374906
0.07387899703979502,0.05471300430297901,0.04162909932136531,0.03209540195465091,0.03607289738655091,0.03698710150718691,0.042561697435379006,0.03649079747200011,0.03538489885330201,0.0490899021148682,0.062409001064301015,0.08679600305557301,0.089332001876831,0.065981000137329,0.07321600265502902,0.05061119742393491,0.0425051028251648,0.03724539823532101,0.03961570210456851,0.0417105013847351,0.03693860120773321,0.04422299809455871,0.03856959886550901,0.039912098121643105,0.0364475006580353,0.035060601902008104,0.041851597499847404,0.0379128987312317,0.039003598165512104,0.031752901744842604,0.033144497346878105,0.03766069955825811,0.04814990110397341,0.0457310015678406,0.0449524993419647,0.03954560108184811,0.035414999198913596,0.03552309818267821,0.03947629876136781,0.0337213987827301,0.03291180081367491,0.03248490042686461,0.04205430097579961,0.03621140069961551,0.03163760251998901,0.03617669887542721,0.03292900271415711,0.0341060990810394,0.034286498498916615,0.03385199851989751
0.0405000025749207,0.023927199316024807,0.024780398082733197,0.03392119951248171,0.03461099810600281,0.03286610193252561,0.03516740150451661,0.03433279938697821,0.05412200040817301,0.06484599657058701,0.05060849733352661,0.0441663021564483,0.0440622980117798,0.043059402179718,0.03930609769821171,0.03430809922218321,0.03876709885597231,0.03664280123710631,0.03965380139350891,0.0317023987293243,0.04080920166969301,0.034548699331283614,0.0379809970378876,0.03323129959106451,0.0330151016235352,0.030908899974823,0.0289667005062103,0.024550002288818408,0.02379329748153689,0.022936802577972405,0.025142400932311994,0.034983002614975,0.044658898782730105,0.045546400022506706,0.04251819796562201,0.032606201839447,0.0352981025695801,0.0202849978923798,0.02564859933853151,0.030420600843429603,0.03503609843254091,0.03259500212669371,0.0380846971988678,0.03923150248527531,0.029169499349594098,0.042663800191879306,0.0521955008029938,0.0465728992938995,0.0456844026565552,0.05586499519348101
0.014232497882843,0.017610001039505004,0.021304702234268204,0.0223766977310181,0.025030600500106796,0.028941899013519297,0.0345641011714935,0.04502620048522951,0.0419651979923248,0.041725199890136705,0.04040110058784491,0.041687601280212414,0.0382377976894379,0.0275848979473114,0.028473001194000196,0.03170559949874881,0.029144298505783102,0.027541499805450488,0.03396670169830321,0.03204420156478881,0.0262260014533997,0.0289784008979797,0.028150700998306293,0.028803997707367003,0.0273226971149445,0.024863498878479003,0.020720397901534994,0.020354699563980096,0.01810600109100339,0.018314700794220005,0.025926202011108394,0.020694899034500093,0.0267346972942352,0.0344739014625549,0.040927701663971014,0.0237991983413696,0.017347400856018096,0.016717898321151704,0.028588401746749904,0.026728701066970804,0.028064000082016004,0.025184398365020795,0.03381410188674931,0.03086219973564151,0.025348001194000193,0.03310009784698491,0.03303719706535341,0.0368350977420807,0.03959209866523741,0.037203198146820105
0.008341901969909703,0.010495900583267204,0.012096899223327604,0.014522200298309303,0.01585720129013061,0.023321002197265607,0.03763149924278261,0.0377782995223999,0.038231902790069605,0.03824279851913451,0.0277952010154724,0.02711039729118351,0.021969001960754388,0.025753998231887794,0.020505099964141897,0.021590297889709488,0.022210102748870898,0.023436802101135294,0.026911597919464104,0.019021099281310995,0.019126700830459593,0.021301602792739897,0.030504798364639298,0.0261712009429931,0.02665309853553769,0.019476901960372904,0.017190598917007506,0.017612599802017202,0.012740599584579505,0.012848501873016404,0.011755102348327603,0.017309802246093804,0.01158360190391541,0.024860399436950696,0.020908301544189496,0.025042002868652304,0.01805049724578859,0.019697999429702802,0.0194567019462586,0.015036200952529898,0.013724100065231306,0.0168780023574829,0.0170971984386444,0.014302002859115603,0.011643200588226297,0.023193901252746597,0.0217621976852417,0.02252989954948429,0.025389998626708994,0.023382901620864906
0.0090835029602051,0.008461600017547598,0.0058189982891083,0.007847397994995096,0.0199346000671387,0.0272682005882263,0.031273799610138,0.0272544974803925,0.0307660991668701,0.026911800575256405,0.0190290028572083,0.016244899702072095,0.011009299230575597,0.0138706976890564,0.014188998413085904,0.019064801406860392,0.023692297410964992,0.017608200979232803,0.023564999771118193,0.015201198530197104,0.0163416976451874,0.021829002571106003,0.024814098548889198,0.0250972027301788,0.021665602397918697,0.0207927996635437,0.006378501129150402,0.008749597740173299,0.007352798652648903,0.002728399109840402,0.010280698013305698,0.004506700706481898,0.0121668989181519,0.007827400636673,0.008513402414321903,0.006590198945999099,0.010625898313522297,0.008907901716232302,0.014609902572631808,0.013251000118255609,0.009743898582458495,0.010766899061203008,0.010865801048278802,0.0131234998226166,0.0088959986686707,0.011207502555847206,0.0103017980575562,0.0180011028766632,0.020178198289871198,0.025978999805450494
0.008981197547912597,0.0033848995685576925,0.007367902469635002,0.012065600824356103,0.01796780176162719,0.017340200614929198,0.019338499975204503,0.021292799186706603,0.014011698436737104,0.016962301206588697,0.010765498352050807,0.012327700328826904,0.011750798892974899,0.012608700466156,0.010780298185348505,0.013867699575424209,0.016096400690078706,0.005912398767471303,0.009998899173736597,0.009771900844573998,0.020810800266265896,0.0238757009029388,0.03235040254592901,0.0235052997589111,0.015304302644729604,0.003628098440170301,0.0020662987947463966,0.0069064015865326015,0.005715602111816398,0.008249401521682697,0.005957602930069002,0.007100802135467496,0.0033504004001617006,0.0034448976039887034,0.005858599615097099,0.005272399854660001,0.006051301431655895,0.010055899095535305,0.013258599710464499,0.013154601526260402,0.013749497604370099,0.0017884010791779043,-0.0006796007633208999,0.002403699827194206,-0.3,0.008338701200485198,0.0020106995820998955,0.0036673004150390934,0.003821300935745198,0.0026370013475417956
-0.0003594999790191962,-0.00018540077209470084,0.004449200105667102,0.010230099630355805,0.0111723000526428,0.010016899776458695,0.005930798721313498,0.0012921000242233035,0.004834299755096404,0.0091462010860443,0.013020598363876302,0.0073742026805877995,0.011033898067474398,0.0130689019680023,0.0111050004482269,-0.3,-0.3,-0.3,0.000897499394416796,-0.3,0.01701009817123409,0.017459999990463305,0.019806497764587407,0.0147634977817535,-0.3,7.550067901610153e-05,-6.960086822509692e-05,0.004568302106857299,-0.0007339989423751962,-0.3,-0.3,0.0011972988367081002,0.0013709986925124992,0.0011916989803313995,0.004027902555465696,0.007830398750305199,0.014035301876068104,0.017152398300170894,0.0190906996250153,0.017578702640533496,0.005982797813415508,-0.3,-0.000509799051284799,-0.3,-0.3,-0.3,-0.3,0.0006593997001648013,0.006207900714874303,0.0014439011335372989
-0.3,-0.3,-0.3,-0.0006868993520736992,-0.3,-0.3,-0.3,0.000517698597908,0.0005502993583678972,0.0067494983196258965,0.011769097518920902,0.0037594015121459965,-0.3,-0.3,-0.3,-0.3,-0.3,-0.3,0.004759597253799404,0.007950198125839202,0.0066177005290985,0.008762698841095009,0.002728399109840402,-0.3,-0.3,-0.3,-0.3,-0.3,-0.3,-0.3,-0.3,0.002015399408340496,0.009768998098373404,0.005468302440643303,0.009159200859069804,0.008505200815200797,0.004083001089096103,-0.3,0.004504602622985793,0.0063552016735077006,0.0066020006656646955,-0.3,-0.3,-0.3,-0.3,-0.3,-0.3,-0.3,-0.3,-0.3
-0.3,-0.3,-0.3,-0.3,-0.3,-0.3,-0.3,-0.3,-0.3,-0.3,-0.3,-0.3,-0.3,-0.3,-0.3,-0.3,-0.3,-0.3,-0.3,-0.3,-0.3,-0.3,-0.3,-0.3,-0.3,-0.3,-0.3,-0.3,-0.3,-0.3,0.007010101747512794,0.004928302240371706,-0.3,-0.3,-0.3,-0.3,-0.3,-0.3,0.0007932985544205026,-0.0004311000585555995,-0.3,-0.3,-0.3,-0.3,-0.3,-0.3,-0.3,-0.3,-0.3,-0.3
