0.0772632445592544,0.08751511517789053,0.07245563876620868,0.08239229701722028,0.0732356455688807,0.07700584735846644,0.09331182308618712,0.09312422742999418,0.08859893183642908,0.05328867548142238,0.07136748484006153,0.07267066481738971,0.07265810000063655,0.06538361105027372,0.06700258863523859,0.05821455056545616,0.05839731732446092,0.05883350269277583,0.05864106205906877,0.05885487850996976,0.0662357681637176,0.06558966754356227,0.058643295419919056,0.06153683842800585,0.05853661686979951,0.06596490800461967,0.07803273288549421,0.08233782572477095,0.05985403378334417,0.06021461449845153,0.05906282796277042,0.06271241445380253,0.059008235695054395,0.059515569033649074,0.05723550040567828,0.06126333904084942,0.059983678846269234,0.0599131979658165,0.06839088373072623,0.06938413729857698,0.06813660424094303,0.06771209955032963,0.06862541072144923,0.05164908941876087,0.06762956202711295,0.06396371127182078,0.06449669521907614,0.061066681805385235,0.054391065039257,0.04306027036117173
0.07696473371953545,0.07894862621614103,0.061138482177389306,0.06288841787908125,0.06952387528420204,0.0816804501449578,0.0797106433758516,0.07746347108757753,0.07872951834477418,0.059476664476699574,0.04819248708142615,0.04765309465364851,0.05372640905617919,0.04268253176417637,0.044674654463997356,0.04705190394794943,0.05470870240649714,0.05310129888548862,0.054979749801447216,0.052720412150048024,0.0579556368263281,0.05648266549361748,0.05808505070836989,0.05551611479682414,0.055300802756582126,0.060438522152644586,0.06020898308416257,0.060357702460384466,0.06655842565257988,0.05858299650322554,0.05996019939496098,0.05923757698499808,0.05783412028470508,0.05491937136767244,0.05829941516101002,0.058886721532550874,0.05613706071537773,0.05923147884015324,0.05438923593060299,0.05287350284460329,0.04777434558642721,0.04787027512083829,0.05033410015674873,0.05172197208307723,0.05339411395372583,0.04471080254675172,0.043085806820355885,0.0423654766993618,0.046463155442172534,0.03981231635443021
0.07266265514406024,0.07104436195029015,0.06212477696095976,0.05804407057871545,0.06594333661869746,0.06429897955893159,0.06265102084227986,0.06475081878306928,0.061552084590221566,0.06024640197396345,0.054821597906328644,0.04177844885336614,0.047312342102426484,0.04067415406528779,0.047037399199371846,0.04761633533084814,0.04782153193135594,0.05435308696402749,0.04956912229115157,0.05696457731695402,0.0517029839504371,0.054149781894686,0.0532055094530363,0.05801369787144196,0.07647913574611549,0.0547102179261686,0.06019573921294935,0.06113907724440691,0.05614604414569811,0.05864815585164853,0.05712032591735369,0.09105661168589708,0.053007292968760764,0.0578521122903419,0.04851546071305577,0.057854137876019264,0.06097531223353333,0.05475248244840359,0.05095517224510955,0.0534810638615219,0.051454557447637966,0.04478853302133458,0.050084568350564795,0.047765290521281374,0.04427201664302027,0.04475483668068527,0.042591460999659214,0.04251099099321388,0.04153536176140341,0.03979174190354054
0.05642950819454084,0.05339352999303816,0.05223742677856019,0.05525198724756855,0.051888331113495084,0.055422199091489203,0.03281286774731496,0.03595508441849921,0.05144982164808263,0.0544537306926205,0.04657225182349618,0.047100366247559936,0.04050026379939975,0.04517215202636141,0.046469505161022925,0.04518727205610207,0.051394920266827314,0.04640038089051912,0.08859333833216136,0.051306936603886445,0.05328383615600804,0.04995285834897435,0.05458773141611776,0.05830128455413713,0.0546592726897253,0.05441642474486761,0.05084542622115673,0.04884306938408485,0.05380925720176552,0.04945946890502574,0.09757252144786926,0.05201628634729427,0.0938400455257873,0.1220257940256395,0.05553357815244627,0.05661239102268204,0.05831197315361873,0.058496381858032284,0.05341869937243585,0.051334082178739866,0.04781076790634277,0.04444374218748196,0.04787013079383219,0.04146049181574826,0.04395880898339126,0.0442451534201234,0.03989386053502089,0.0402974329196704,0.03933603547600244,0.04069202479114052
0.030357362764757295,0.02826219284238387,0.03442078973890986,0.03500311964768622,0.03096586957010127,0.03149020067368136,0.05428141139877017,0.044137754182589806,0.03341073762596562,0.042444734755797936,0.04454023235428862,0.03497790576699529,0.041360333560047514,0.042382769244408154,0.0428506655490715,0.04463597782653323,0.043092011678562483,0.0638840420910426,0.047632499215932135,0.049443189140244245,0.0515461795954375,0.093002192233889,0.04955583274508561,0.05447351603774034,0.048231094045191936,0.051018332085207785,0.04838811048306847,0.05569935359894743,0.046966377576936454,0.050853430770718216,0.04825537632087498,0.0720387423603554,0.04572679840912204,0.08611607718504831,0.1244565894807869,0.052401162731504095,0.058277302608536925,0.0551692601747361,0.044981782018114924,0.047551880358825245,0.05128109545815599,0.046637214628194916,0.04220328563029985,0.040508598770118545,0.04177090366337416,0.04013087762500556,0.040247374396042944,0.039382715432905745,0.03811806484356093,0.04028781121959662
0.04366078459061164,0.02959722836337997,0.025487552942384348,0.025656011709441897,0.028522136696036364,0.04441382567340198,0.043199281278185495,0.04353737057693265,0.0426230864145959,0.029060928422865024,0.029763520958209718,0.03770827023257818,0.04216940948749094,0.042109360439550596,0.04157409989033019,0.04395421437493318,0.042961869961252605,0.04559682412358572,0.0710475042609598,0.04736543710052453,0.04789573384105816,0.08099859945166497,0.04950936738685495,0.049132159312825746,0.049151165762738,0.047958303489170545,0.05072024085314287,0.04724406936274639,0.04718066907313984,0.04582209180291008,0.04513815028721341,0.046180757929019906,0.0522501121491268,0.04220735380361562,0.05330518130046018,0.122067726604317,0.04881917503451749,0.04954734626279775,0.05634590100401357,0.04690408176812785,0.05029480251446867,0.04386113552616949,0.04973230506144115,0.04212845505020872,0.039886287766175255,0.03655947009593563,0.04027216108097156,0.039300047596256805,0.03900300689872906,0.03810947615908397
0.03569979577865975,0.022193895391837828,0.02470002676772687,0.02851543549165898,0.029480721105285868,0.03495685074143278,0.03931394010711649,0.04508041281902724,0.03799357429268412,0.023293131856317113,0.03766388012074111,0.03786231944244049,0.03719526846473002,0.041497020979534865,0.1606754880017856,0.06241470094086113,0.04206366613457202,0.044693140170686624,0.044006358706123135,0.0981873051040433,0.04672055462956386,0.04639276483411743,0.06169810010621028,0.04589231397624695,0.049283676689503765,0.052845457440871976,0.04264941613211592,0.041742886067215525,0.04518195253184866,0.04568883208325316,0.04342468431170006,0.04384779720037822,0.05772212715311063,0.08430708123467025,0.039044692990830125,0.11038561990496298,0.12994618801496177,0.05353330173528509,0.04153890386270521,0.0440001309355886,0.04242549468695377,0.044896478675988,0.04083649215484737,0.04220152865202881,0.0406893372343528,0.036992844472288164,0.036072094135292325,0.03651317630993852,0.03905511457198087,0.03783823615641721
0.03552051976874226,0.026744171422534192,0.021519078167787822,0.022016103146442565,0.022438481074993237,0.016622510575955703,0.03288510161919687,0.025941257876690518,0.023008210440061665,0.022899748780366744,0.032821581865361354,0.03481480115204201,0.04041237283261554,0.041408363405635654,0.09962097767765642,0.04199751568466835,0.044109033933536726,0.04393038260458594,0.08282658220170078,0.047792758781557906,0.082078034676097,0.04500895710241304,0.0479644574046306,0.045526312041603706,0.04845960085298849,0.05093708098105341,0.041293554201922864,0.03975923619591559,0.05917571921030234,0.04426799578212656,0.049309847774639926,0.042145489282550685,0.055688619596109504,0.034017531624294745,0.035761827804718746,0.03969371926080025,0.11854708017921338,0.09033768286867705,0.04460424094141542,0.04044835073510179,0.05754837418609094,0.038425480246093144,0.03444216908239901,0.03550618105709496,0.035116834034284505,0.0346162388394285,0.034811437462273984,0.036365322903292925,0.03774133115122356,0.03579375115948836
0.0307280520547542,0.02058044150457199,0.022292263456048886,0.027716841623915352,0.02056359693273654,0.02970938143518648,0.019149977633980377,0.021050194355642683,0.02122985461075177,0.03254846658486541,0.034216633701358155,0.040176021374968666,0.040996800759334026,0.09080857095255654,0.04190444016581539,0.04328934898741718,0.04084017609302329,0.0668507161317981,0.075112414989489,0.042252786617586434,0.039110030069271676,0.04990163403452107,0.05013235550846205,0.04804885680596022,0.042995738716048115,0.04631558099755695,0.03636908342961531,0.05889092851409914,0.06262059465571833,0.05676378798594024,0.04290798573050794,0.04030177701765686,0.03422972800562571,0.033927356874417516,0.06916566864961962,0.03946731376249444,0.042901023515620286,0.04465064297330982,0.1162184252007255,0.03047813277018376,0.03721780195310102,0.03624484507984466,0.03696700760623124,0.03168831475044627,0.035438446797803044,0.03732417814977765,0.03237752949394436,0.03329463305272733,0.032883910458321355,0.03171614651530744
0.018988863259132495,0.020551463221112155,0.013142687994389836,0.01587738126046874,0.011605537925090998,0.022435046314076317,0.026565800796095527,0.020278551942357087,0.03354573603659321,0.03364642828439668,0.03771946227377192,0.13473867457350527,0.07451464979251911,0.037633827583999364,0.039424164110887824,0.042731793174791984,0.0860047126406791,0.04046356391279547,0.05546273907857117,0.03629158541260617,0.06075852150669206,0.10912927028629411,0.049378487168217036,0.048971405617004915,0.047493875356378695,0.04194894572797021,0.02503000190811339,0.022668238869000424,0.021838063249977956,0.04272078978735977,0.043736821226837114,0.04286025172935997,0.033372191819314445,0.03414713172195862,0.03762736396978975,0.11832671757999999,0.04446138159661277,0.06151750993714541,0.04703711914763948,0.04494091735872303,0.033395276489917594,0.033729655779154794,0.03407460512992092,0.02940670088388789,0.03652855321184251,0.03733921814143741,0.03711533739767889,0.030799409771451715,0.02948126466854148,0.028203224729268846
0.018978767558962467,0.014053757209724425,0.011485400297917387,0.01797775694009931,0.01072477553557217,0.012687682941391743,0.019165451986812077,0.032762676820429305,0.03225203942744283,0.037704791199948774,0.0371037968608674,0.12878245111753717,0.03641772298384373,0.037916273417110215,0.0392899405932885,0.03989489979852212,0.03943601926549563,0.03630683310409186,0.034430436549887256,0.030663829674599144,0.07947684259987199,0.049324639513982006,0.047961946987412525,0.056817053542408485,0.048422515806466955,0.04713212455480409,0.04066429777513442,0.019172172117972754,0.07843148244394287,0.030145223331654203,0.03151223349408935,0.02073007833885485,0.009529680823546759,0.009882205732636222,0.005829585328443937,0.03559075846244477,0.037948882519580576,0.02989860873594172,0.0336997518714502,0.03318386144570768,0.033867376329787584,0.028246287182484054,0.029920079808965414,0.02914437963143165,0.02738374738388406,0.021552838772908853,0.023575787396387243,0.022244376507069792,0.02320267880872627,0.022801480777975332
0.017192677030093466,0.016092282881225432,0.013759148292440975,0.009704783304707882,0.01275320561966809,0.016440453074219662,0.021877393388599665,0.01707301094869775,0.02224050114554715,-0.002112870539672123,0.02629599953875821,0.135529460129803,0.03583125241464435,0.07418368601297089,0.03838316911058091,0.036715413253567176,0.06231627564776038,0.03829378439943243,0.026668391783573237,0.11624412305587925,0.028252974870635817,0.03450186398163243,0.03428100139700538,0.03270545737233951,0.0347851643273796,0.03690772520559082,0.033648395895455284,0.01342559145912196,0.02912636863182454,0.02296861214274318,0.02028152032511257,0.02062992242318671,0.014757439636478855,0.004902661655743254,0.011675280910661986,0.014901192266795139,0.01714314741855417,0.0030845886553470406,0.015152517382239387,0.01848065731279791,0.017489797268359183,0.016929586955600887,0.015211942868815135,0.01400040869006251,0.01130638806427041,0.0054585016798782545,0.003705717003443228,0.0031213909342934485,0.014660019550812352,0.016489762017723873
0.01250275919763681,0.012663622028163011,0.005960799215393885,0.010120810804737413,0.01767882344384433,0.00920958476360231,0.003345700228911507,0.002893388642943101,0.005150018240101446,-0.011944869459259868,0.019282943697471258,0.033504469988880146,0.03960711339362126,0.10081483642928338,0.0373490832503598,0.038633014354144214,0.030380854357010174,0.01992548922030115,0.02174603351563364,0.014237520831886265,0.016881006435818618,0.014667396185129859,0.013832481366082951,0.015353838411286928,0.018202288837250485,0.018273430253046837,0.01978799464083524,0.018562044792774512,0.010135678215462586,0.007847756927413756,0.0029047939510842284,0.003051171227897621,0.002946370088227832,0.0013979127614601697,0.004932224749456604,0.008242148051048009,0.008153319534822028,0.00652425668728287,0.0027902763556026996,0.0031475425398621304,0.0031054346677415103,0.0034734123945542755,0.003907041305919712,0.0030653217342639996,0.004792954296480931,0.003140518563712396,0.002906128923669747,0.0032460795626406205,0.002840013483532612,0.0026044683619910842
0.0016023576384647583,0.0018920194970304014,0.003878863544778507,0.0014544106415038517,0.014855109818321863,-0.004475853483291952,0.0036498357067927664,-0.0006229622989216619,0.002812521833652786,0.0027019431485339434,0.007573090160490475,0.015589037126676404,0.0089348779256612,0.01877472781535423,0.020299715659419626,0.016402081149593854,0.013981149764527767,0.004389383860868205,0.003078142283541954,0.003878155279418172,0.0031986350427597073,0.0021184063910618996,0.0018349803769000968,0.0035914455882728293,0.0028297006915052707,0.0042226796753844584,0.0041354893714534635,0.0046031147770891154,0.0035581625313052976,0.0031211491648845636,-0.015958253517050863,0.001797226770356177,0.0017825456826504077,0.0020311648908698313,0.0013332907655589762,0.00040742268472865323,0.001104825234140549,0.002086672450189776,0.0021545787357119925,0.002203528877738969,0.002309086777254515,0.0038190967608922313,0.0038131240162389236,0.003830390328945596,-0.08545036230626635,-0.08503293639691047,-0.11859851848026519,-0.0883179170369573,-0.08854547165146458,-0.10620176022679934
-0.07675247131099638,0.0019964173559715703,0.0013383247090718979,0.0004511456055892144,0.0018745301078937685,0.0010061881346600853,-0.007066230725777772,0.0014002061327893025,0.0020085306770244154,0.00043941305312236685,0.001368717235572322,0.0029350501902336338,0.0027136490499313362,0.0026805785747464925,0.0024177220744557287,0.004061666034696747,0.0030619367164801637,0.001755016440754377,-0.008997459249375296,-0.0411599451284094,-0.07422717754885656,-0.02258291891058728,0.0006266172285680507,0.0015877063268222669,0.0023624321812519555,0.0005913588578361619,-0.014458670332134818,-0.022989233226297538,0.0010686961652719908,-0.02262756638190872,-0.11607965048489333,-0.16407504481808693,-0.13273343973305232,-0.1279918187429062,-0.15036587105415314,-0.1461174885672854,-0.14189276849871016,-0.1381958190227655,-0.12783438927146915,-0.11883985553373916,-0.10681973415084892,-0.1346983693128074,-0.17293993300509108,-0.16945821990100302,-0.18787790423297845,-0.17837528152320034,-0.19833085831253786,-0.18641986326752427,-0.14299608133156708,-0.16529002503463877
-0.1584830609093391,-0.1311205322472695,-0.11704597755795894,-0.08050035865604654,-0.1281975587363162,-0.11825728692852522,-0.07266964141991954,-0.030603835277898242,-0.04591465324456065,-0.09134165583162,-0.11205635240793163,-0.10521735132156566,-0.10371688276338564,-0.10448695736797334,-0.07701025021413895,-0.05782969877534162,-0.061373442748001404,-0.09064311860152843,-0.16808009008854388,-0.19601427282527406,-0.20719348382397076,-0.2219489667647418,-0.18154634926948024,-0.10822661724745236,-0.11371658897708409,-0.13350227952555732,-0.19440682123429626,-0.20018267162230985,-0.22092887492497473,-0.2444464969182125,-0.25883868464277815,-0.24204358880142762,-0.22178755546461681,-0.22073268501654708,-0.21689347758337327,-0.20243360451036735,-0.1905355810235898,-0.1969095815859361,-0.20751021865054278,-0.19438581784987183,-0.20763553764123147,-0.23715917495948757,-0.23925922806825242,-0.23551504842947438,-0.23105154316474202,-0.1977579460330192,-0.1866480538631762,-0.18714703258094786,-0.17262305200246694,-0.17641444907458195
-0.23009858034859804,-0.1977848599619686,-0.20256719435295947,-0.12734543891438074,-0.11691071465644721,-0.1151037303271856,-0.11371785994959531,-0.12515805716835446,-0.14502525330876326,-0.16647475769396788,-0.19007146708575157,-0.19402619450136335,-0.1848933397601555,-0.17021199117857325,-0.1604550254127534,-0.17012533333976496,-0.1776915149341292,-0.19643125576044151,-0.2029849772880378,-0.2151343338561152,-0.22319380295592886,-0.23476855565086244,-0.2431757354929282,-0.2598658837932704,-0.24409027877968684,-0.2425476012684643,-0.2552410667937926,-0.25999777446421163,-0.2613355234397595,-0.2786939417362438,-0.2885964276099672,-0.28660558291395977,-0.2843716487355934,-0.2801099045560517,-0.27648838055246233,-0.28425118156813833,-0.2808909049627967,-0.2567297747156533,-0.2578691267005687,-0.2731859979556719,-0.2910135908982521,-0.29094631722919784,-0.28530256502176116,-0.2845384063180984,-0.2863668637127593,-0.29797674547709885,-0.2919596413414962,-0.29178799677432027,-0.29581299291375446,-0.2827479594394602
-0.24666692845602073,-0.23405424160721067,-0.264998805642034,-0.2722326192171936,-0.2660035278315871,-0.2568231668601233,-0.2500959780326431,-0.25526361057460883,-0.20577831668791782,-0.19684949382308572,-0.19930841577831918,-0.2039523845744152,-0.20600348116900355,-0.20760117944369486,-0.2420398458399557,-0.23908940639784815,-0.2279733147255681,-0.2332119571343211,-0.24439589128802353,-0.25192602747816967,-0.25514040463342735,-0.2568228052155022,-0.2655733466958105,-0.28206705256542586,-0.2835532917106338,-0.2726743701604376,-0.2738113452656285,-0.2758846661249655,-0.2817667459705636,-0.2961062201709641,-0.2984780057983784,-0.29971830657074156,-0.3,-0.3,-0.2997871885559652,-0.29959555742459765,-0.29756728108885966,-0.2986905202361792,-0.29905298631056726,-0.2975152434584528,-0.2962565905240999,-0.296890098710782,-0.29586054614953494,-0.2979701933197988,-0.2995842810342976,-0.3,-0.3,-0.3,-0.3,-0.3
-0.28269537689290003,-0.2853283490023154,-0.3,-0.296733248557645,-0.29302717122553934,-0.28924499866621767,-0.2846742530778643,-0.29200487033270967,-0.2910154842322493,-0.2893160855777819,-0.2739596316186957,-0.2641204756019161,-0.2676754467828188,-0.27129347086150163,-0.27239459735236154,-0.2770946210584918,-0.2804994345705672,-0.27792147304083265,-0.28303677046679976,-0.28733062696828016,-0.2953815473773113,-0.29857645141896944,-0.3,-0.3,-0.3,-0.2972792343216099,-0.2949333040730912,-0.29398816421013424,-0.29768544089290994,-0.3,-0.3,-0.3,-0.3,-0.3,-0.3,-0.3,-0.3,-0.3,-0.3,-0.3,-0.3,-0.29979962350896266,-0.3,-0.3,-0.3,-0.3,-0.3,-0.3,-0.3,-0.3
-0.3,-0.3,-0.3,-0.3,-0.29860514487318573,-0.29794746403502664,-0.296238557338891,-0.29596249769142724,-0.2963177240367311,-0.2985886233973638,-0.3,-0.29854435329759044,-0.29606232596428883,-0.29477629484736956,-0.2964376780962582,-0.2966922107863412,-0.29854265537761576,-0.29862617416918735,-0.29967488935799147,-0.29974040283549946,-0.3,-0.3,-0.3,-0.3,-0.3,-0.3,-0.3,-0.3,-0.3,-0.3,-0.3,-0.3,-0.3,-0.3,-0.3,-0.3,-0.3,-0.3,-0.3,-0.3,-0.3,-0.3,-0.3,-0.3,-0.3,-0.3,-0.3,-0.3,-0.3,-0.3
