0.11045708038501259,0.10651253420310491,0.1153501678760082,0.13274541793282865,0.12344287867645319,0.11335040690669078,0.11601593032784524,0.11070980857593966,0.1163638541629834,0.11127468289785797,0.15324972787291444,0.18009600785632549,0.09719184982076358,0.10267184215190513,0.09613888435378011,0.11829627437324726,0.11868708938188985,0.11778534220105852,0.12252118950251921,0.12181214867732942,0.08784155100347782,0.1684676246592728,0.11654244191441059,0.09170484548722078,0.12557617572363705,0.08688261455218038,0.0944509733547913,0.07427362182602008,0.08005913964126307,0.12126110226072767,0.0875362819630745,0.11351998251730193,0.06251151054601847,0.04933128197865491,0.11977587593533998,0.09460829579663117,0.11884867763236981,0.11000017375774085,0.11424250991308714,0.11991358545298293,0.11385563175839039,0.1190640381738519,0.09449535663542721,0.09099920298036517,0.09629738094649057,0.06769356702510668,0.10072822016458213,0.06426713299200335,0.06559651407566074,0.06710718229148216
0.1013967140500134,0.11512402322529357,0.11339530583903168,0.13787270758257403,0.09473512898156036,0.11472089780179737,0.11291954039436844,0.08923826689319043,0.08871272145546881,0.08424206428839737,0.10689687240714005,0.09171753376175253,0.10055407773241658,0.09729567828223526,0.1002781648638348,0.09506607231920176,0.11568359680804528,0.1161399288316409,0.1148862046730292,0.13447265815032586,0.08551280442676584,0.08236663741222693,0.11244186317586806,0.0827599405812685,0.11420044751296389,0.07555472847435997,0.09000983912604361,0.09185878522831484,0.06687579351302078,0.05848348445665871,0.05487220362689566,0.05728484997644001,0.04850201783109276,0.11865757661998295,0.10567615221295973,0.0787501618906884,0.1024365262186489,0.1304191572736583,0.11336398195557194,0.11164619784205064,0.11381798013162261,0.10736352563902948,0.10697611929483834,0.09059373688678563,0.07533525423889856,0.10362759442601774,0.06413006522815624,0.10742499780626336,0.06425711953811422,0.06354532817761292
0.10091214908502749,0.09753415862754503,0.10843066571254713,0.14089937379515238,0.08667730175894038,0.09453907869950198,0.08915632169253705,0.0892078990000365,0.0838436169210966,0.12872909941842767,0.0972117363683606,0.09034152583497963,0.1033079317455405,0.09175915183958977,0.09495197931422937,0.0781633737556791,0.11562573342753453,0.11567471779568188,0.1129037163457684,0.1096588137768492,0.17496626696446813,0.12582001793793637,0.07086565681231974,0.05811828115070672,0.07665452366181283,0.07541922534405403,0.07543626005764345,0.0667825772800121,0.08665735697007765,0.05483729699046081,0.07551784209083391,0.06182465859796965,0.04583551315342865,0.0484838606339803,0.05604967093814717,0.09580895890997405,0.1020135845213533,0.09601988149898033,0.10991888123686944,0.11097079354787308,0.11154469428140407,0.10706302142166833,0.10417235435670502,0.08925830446973158,0.1096150308287716,0.0751576542926309,0.13216406253761026,0.06352360726545318,0.0517641048589472,0.04713228183212994
0.10094754273561522,0.09012713146214352,0.08013606440230805,0.08271441054751069,0.08399940171097334,0.0860092115192219,0.07843474927063947,0.08210549539463871,0.08141571298411798,0.09541389251810407,0.06407472268226905,0.06743422018279789,0.08998103809112908,0.09368357748711945,0.08852603155281336,0.08981874559380823,0.07493699531299179,0.10913767140048006,0.10924523920990029,0.11013978461813433,0.13344650066994618,0.07080959493323602,0.06714040884393191,0.12612273314727904,0.05736293786590979,0.058286611780800496,0.074009202766461,0.05278646102200074,0.09987521299521306,0.03358541158572435,0.1055886123645209,0.030274175506746635,0.045240352255392816,0.05558635341337591,0.07237253942920335,0.075474391683684,0.08302070132589438,0.09296147864008653,0.09949975629496055,0.10829940546653091,0.086910864421024,0.09534930506632888,0.10074663692395174,0.09308013202849538,0.08391462278812131,0.10330838395812166,0.07478270564416231,0.06440211377811028,0.06151680218518356,0.05292889919556433
0.10659530157544468,0.11605665944072661,0.08194952844199806,0.08372001522042948,0.08259949854326366,0.0782676404903187,0.0825434137430134,0.08199962689284544,0.07996863740476362,0.1439541328900142,0.08145152736746085,0.057804300892528374,0.13941285646981003,0.08420531807117314,0.08896244903031736,0.07448526443140778,0.07472042028411702,0.10663467760497422,0.10714393785408269,0.10655661418662442,0.08422524311103441,0.055167357062323896,0.047424179030272226,0.06464238909646673,0.05729495200591425,0.07804046464021655,0.09089669159495081,0.06453089016300645,0.03359561752693542,0.033577303262640024,0.030252226354967025,0.036843168612827853,0.055168101721689136,0.046474611463782026,0.08758507539713825,0.062484784781682956,0.08179476939492186,0.0858119827220593,0.07477065820713587,0.13990049413768121,0.07790623756023622,0.07883667685183696,0.0988100749988842,0.0827872450786315,0.08303752400694665,0.07291957947015404,0.06998289744000599,0.051126361185253794,0.060516308421531065,0.05819310612988665
0.059914750624510224,0.0790718284973335,0.11075914324082178,0.08280650339032501,0.07595511541735475,0.06159746533455601,0.09152218664055964,0.07183310242622239,0.09790701905562987,0.06729912004676922,0.03548410065860523,0.05629515569596227,0.052070609892160676,0.0662499692096578,0.07437351113889698,0.07218207064418264,0.07461430175340679,0.07802563296150393,0.04253397862805769,0.12121246822411505,0.05640996129860172,0.055052693322431526,0.05493807888243757,0.04587539543861417,0.04439659408989681,0.07687616809317806,0.029291530130833947,0.045603443511654976,0.033948097030931254,0.06524637354282928,0.034524010389987966,0.028072921377190488,0.040219187868259385,0.03457402144204121,0.050434618196126886,0.05402705013849799,0.08358584186617798,0.05521000403688048,0.059671363493980445,0.057086678984867786,0.05662312065748226,0.07206108621039822,0.05077356028693941,0.0472350521111808,0.06852508350213031,0.07035845204106336,0.06996456709505094,0.06949560735170525,0.047866054967330846,0.08836926223597141
0.07614240013923769,0.05230438636992202,0.08331343601508169,0.08090012292060296,0.0817349344938187,0.05975663688982103,0.07023566085928613,0.06024948504023246,0.051250782708603865,0.06273352582547972,0.06586045010809968,0.0350656313066776,0.04115956274880546,0.06067131823665321,0.08581793743432461,0.07164085639844035,0.062350852422894815,0.03229586097032257,0.0331598627152104,0.03703899703023042,0.04744312899836427,0.05163636757618635,0.04117134280259903,0.04107003127497105,0.04019952807617462,0.028414282435786448,0.022493901031549655,0.04937824214896065,0.033078170010571076,0.005450167430704577,0.0632981486372278,0.028043131357260085,0.025402639991471535,0.022844246226290964,0.022163398744869636,0.08129437780410262,0.08204931204024676,0.04746403160737392,0.04437235938961476,0.08783474896811143,0.051824847708186975,0.05499859156402166,0.04740800413784026,0.04887524468649351,0.04995012390121725,0.10608300819084793,0.050088311232711735,0.0395190525929075,0.05700739215137801,0.05070661913222149
0.05282012417583778,0.05172773930786102,0.05610248191273873,0.0363557072525614,0.043664150434191154,0.038291037291725845,0.060081210314657386,0.0507519024775266,0.05589505052057872,0.050395790311653935,0.049729333004202125,0.03921929412351777,0.034864785219083184,0.04010806850030768,0.03568911840925377,0.06100331333127895,0.04785590064543331,0.06074242273014653,0.05188312841181823,0.08329398597477407,0.034673785640132126,0.02971880416671198,0.03149285382197739,0.02919757015147404,0.0352140943658826,0.01185958590104393,-0.0027894449889568295,0.017488249131530704,0.04447838323430249,0.013586848665176003,0.014148221878552355,0.04743507591032896,0.025401843981459015,0.022288343930370533,0.015251326281987701,-0.008920200642304078,0.08440372876816554,0.030508138972921088,0.04319808110228447,0.042227341426757395,0.03469410242532647,0.04672375029150684,0.043327664328255744,0.04261910650201707,0.0926291154418815,0.06519646312186485,0.0384638602455228,0.03955836832238338,0.041281067661170914,0.046088135593421994
0.0638304204382606,0.050648297436012304,0.04866458211874121,0.07098169399499227,0.08145002966912172,0.030916603413654698,0.04405051929993997,0.04814999732675288,0.02667418897251898,0.028236874732772917,0.0422485934264065,0.019860247112359196,0.019268560527454834,0.026683817753606898,0.045593953994393636,0.041057533958812446,0.04437517378192468,0.043926669764849685,-0.016593667197911548,0.010436741064672897,0.0323092017128174,0.02962746274895774,0.03750183149060257,0.0778749034540509,0.020596828862699503,0.034552896152566084,-0.001965969832475703,0.10073415903143669,0.006327774686812351,-0.007090663702407599,0.012519998192010391,-0.004494522736365267,0.022207513210476742,0.0069836238911960115,0.017455574100069232,-0.015267619982969733,0.006289535268605394,0.09103801186141307,0.01677721274802668,0.03699683091307582,0.03497275864351032,0.033395088797872535,0.055331930215954936,0.03590862471840563,0.042613091420049806,0.03374054396343767,0.027145325169579623,0.08024738612332649,0.057274295380466925,0.0475054568060439
0.05848338404839164,0.06012259677834986,0.04450022424799691,0.04200810073464217,0.029079315380542245,0.030842309738346636,0.03276500214699843,0.02685513989452701,0.026010542219968586,0.026514539214979007,0.02016310146924461,0.03895742827887019,0.025386550127546332,0.01135224805851853,0.026758840528354193,0.029437244719774398,0.030069491147512128,0.009518021963619382,0.043735591836019466,-0.011742466279656862,0.039497747966878535,0.021067006912617016,0.011524921065394577,0.0168493517229349,0.09653233821505239,0.020297130378818466,-0.0032110217108960552,-0.003656869855310602,0.041298081828571795,-0.013377820069879353,-0.017495286189260773,-0.003789113196569469,0.005547720543694257,0.015603075364004628,0.00651714679883271,0.010777648792993758,0.0013985549168393885,0.009905287856023784,0.0917735335065396,0.013793081985593642,0.02590466719832183,0.026256946003423137,0.029092365013582595,0.0351109923643717,0.011771369921038166,0.08145480478112414,0.002776753554623595,0.03607655480024702,0.07118400982725391,0.06252425039916912
0.045898679645863125,0.04038903737175254,0.04842787728686512,0.04192148270720983,0.03401253232019144,0.02398802811098641,0.028051134269323832,0.01718520317171839,0.017883726723898517,0.01635349760839089,0.011538467772868849,0.04920856374052647,0.0523541652196982,0.02508809873707385,0.01081378932741073,0.008809135956875255,-0.0012817103114638522,0.03903236528092571,0.01947630089467873,-0.016402603468062625,0.0011421928552548114,-0.0008437149045257765,0.060847365941437886,-0.006203944617466926,0.011846402554134584,-0.015677928717883986,-0.012017948289639094,-0.0075008147944992986,-0.003416813050234098,-0.013471692015632713,-0.019520633669299226,0.0065689512512652915,0.0044518726153859,0.003967432016422587,0.0064439800355396565,0.003363293029279752,0.002672240445348641,0.0007805822600152809,0.0017698861451313412,-0.0027276049346435034,-0.006099341605617261,0.018930382720808107,0.020447922677848798,0.009206494251435896,0.10511908801502862,0.001911367014126639,0.0026360351561344007,0.005513035324591962,0.06298141970979283,0.03389684496983908
0.03324689222622928,0.031519147634549494,0.03260299249062714,0.032506222914503176,0.027889647436197384,0.018207370030572025,0.02321420501127013,0.005947608890314988,0.03006537668304753,0.05208376514440943,0.004042620185770203,-0.003537178792622822,-0.01996799749350021,0.018675277239079385,-0.012920268530304521,-0.001502633554922951,0.05170453477724092,-0.017553171685011523,-0.018883581252823814,-0.005206423657510302,-0.010288776397703899,-0.01308371428038757,-0.009831951836118867,0.050280035462112044,0.010429838318194487,-0.018238637931946695,-0.013387169345307053,0.001485396904550494,0.021551738405527095,-0.02492892664187101,-0.014687958774962831,0.004555735666301345,0.01606533910301228,0.004251623525627172,0.0036828485555118204,0.0006527606872320513,0.002767816508347202,0.012459325437767305,-0.006793349817889046,0.07429915157081114,0.010694797979121694,0.011335297548495748,0.00687162929892268,-0.0004850802702761557,-0.0022536955705281074,-0.0015764344718112366,-0.003943633204734151,-0.004677736070052441,0.09658919621000384,0.03221862024445288
0.029354789070779968,0.030590565153762662,0.030575984727160006,0.022852601804327088,0.022430016831882067,0.01377012189615281,0.005918066486675922,0.0020159469596611997,-0.021903158062224082,-0.03809143919340199,-0.03883576121951548,-0.009469384010704495,-0.007506878636531076,0.05356194855435682,-0.004573473565426095,-0.01875467026200032,-0.018194586001914766,-0.0187866578905118,-0.02905715549667257,-0.030703055176286943,-0.030947658749695968,-0.01604623897390911,-0.010691429121048597,-0.013229057012334589,0.00797455320052642,-0.02742541167755747,-0.02817186056646993,-0.011734743019798636,-0.026964293742560767,-0.022178675638127213,-0.016984533003780486,-0.0094584886374805,0.003774322664577965,0.04206663540862299,0.0029660883155581633,0.005046230842999552,-0.007434251338746587,-0.011571947138968548,-0.032862990228005866,-0.011329628831566636,0.07875988791037414,-0.03828075910824196,-0.02382057828446381,-0.016072092697123345,-0.01660201162039509,-0.0157904512568147,-0.009168767111149684,-0.014334460110197962,0.0017446277466718811,0.05346448255574124
0.022713917822860537,0.02123506863108974,0.021049320527210223,0.019297864050128295,0.01017322815332029,-0.0007203015425830174,0.0007719849624776389,-0.004185338821795073,-0.02077059309366117,-0.02344357737390004,-0.01614874305797107,-0.015785593627611755,0.04801184034222544,-0.023104116585891114,-0.02196230013760719,-0.03364917523225911,-0.028403135151133668,-0.02880917290458307,-0.009232127395236683,-0.015605679396419908,-0.03319745146736717,-0.02623031047494087,-0.015428426640024372,-0.016802306302704104,-0.026386274679124883,-0.03214532915417485,-0.01849985447240939,-0.020984680415442717,-0.028757425231605394,-0.02885388457386558,-0.036677576017037666,0.014342911645086037,-0.0330085201889893,-0.003294085328573279,-0.0050571100086996236,-0.02211459145779065,-0.026366931230791403,-0.02633635831802966,-0.03378118493279715,-0.03449468053876863,-0.04171743473047207,-0.011262438364024914,-0.02219663891325408,-0.026400619568288396,-0.019002479474524894,-0.023968477660866877,-0.032519307016974176,-0.028261645172495867,-0.03839425325393485,-0.014443364805423528
0.009654635942648681,0.0133510857270401,0.014177307270698752,0.009563717359250563,0.0034153607389097408,-0.01284647587675525,-0.023608207862566163,-0.022555385479768233,-0.01938325916434498,-0.034811471240979025,-0.0016358585825283298,-0.03815974974244973,-0.019434596556742848,-0.044628083314264766,-0.03190396859281664,-0.03501250659536805,-0.034786161241024134,-0.017064998479282837,-0.02121471189354133,-0.051026391367584106,-0.037946374797779105,0.0016965698564506261,0.008181144664059737,-0.05568087266339194,-0.019740114240695217,-0.026051887521747617,-0.03251377720105428,-0.001562071612405038,0.02696739209120257,-0.03282803165900492,0.0889358530324287,-0.05590306765422633,-0.03873681140011328,-0.040087491604646426,-0.022387007935129846,0.01447255701017981,-0.022420927630384835,-0.02970204574159747,0.004681009864242424,-0.044095761418073504,-0.0013517131695670237,-0.03906386896392616,-0.0399034757621723,-0.031999243850209205,-0.027549894823248218,-0.03590365518080245,-0.02520240209007464,-0.03986924463112414,-0.01344599696799151,-0.05013815400068949
-0.00852702341238327,-0.002276431348633074,-0.00694495687879218,-0.01415353512447645,-0.01877658931433697,-0.026061005032329616,-0.03795587312677802,-0.03829232062702998,-0.03851249010915901,-0.01428132982158276,-0.029149893200513345,-0.0397793587370361,-0.03641996887281985,-0.009771518182981907,-0.04264564574519274,-0.017083458176200526,-0.03572603817455197,-0.038126505730588685,-0.04375466278198792,-0.05124129188002686,-0.03824891582159647,-0.04070482019534512,-0.029407741371738374,0.00760061263479809,-0.015583063523237496,-0.04141705213344714,-0.04309378304272707,-0.041108496683292806,0.011229709051249379,-0.025394216770033343,-0.03786328538738992,-0.07662876739906747,-0.052490134186058614,-0.05233408723594431,-0.0880997207903645,-0.06073173286642306,-0.04512333899809741,-0.04336871808676143,-0.04588437786012343,-0.02730317645513078,-0.04276470609170347,-0.04650764274028988,-0.04476046387316126,-0.027793842735122944,-0.04133026106721912,-0.03630666292943064,-0.004451869221188778,-0.023430361534958973,-0.044455529388818964,-0.04411422565432652
-0.026085737638093656,-0.0245670201454753,-0.027846820153214998,-0.025102075027170715,-0.027850555364545053,-0.040471653487572874,-0.03931928934085588,-0.04132696706504123,-0.035701098458243964,-0.028952277554301655,-0.04488957416142861,-0.03486187580202633,-0.04825672751764842,-0.045089163510326616,-0.043411455602065205,-0.03622244016422134,0.022526102037323657,-0.024650143437499904,-0.04489538819723982,-0.051455054087755726,0.0071448002461073825,-0.023931690094020762,-0.05988008006014614,-0.04257245836001418,-0.021341604019253925,-0.047949450111546714,-0.05137589628762816,-0.028149176567180644,-0.032311895609989316,0.08130643488819256,0.03628671127108153,-0.053308448840095495,-0.054282836911251686,-0.046324593264011636,-0.05049588131202139,-0.05188875369307291,-0.0525011145249122,-0.04695789239252094,-0.045766946654154955,-0.04302674415337886,-0.052057183139454156,-0.048429596647898907,-0.03446402442029377,-0.05220134683512795,-0.05159100043040705,-0.05288563159716897,-0.029895204471398335,-0.051061695886115414,-0.05162312936832493,-0.050535113905482563
-0.02938722051489381,-0.029372304699064756,-0.026756318495494782,-0.02777408515554095,-0.03319666554831317,-0.04316759823318973,-0.04360899538948341,-0.029507450157864674,-0.03827340507638336,-0.05273895379669171,-0.05106248292423861,-0.05349413430813146,-0.046322096605676814,-0.046182594930479756,-0.03468446549047468,-0.037034420994202136,0.010826022452663002,-0.026759433604105126,-0.04821167129575785,-0.049569060092658775,-0.041437620683786945,-0.04381613034626051,-0.01791107455288715,-0.05381313109613905,-0.04979203255393166,-0.05220421457307327,-0.03822770745755099,-0.05155637856264367,-0.03692094735892054,-0.004053747345577017,-0.10877636230180979,-0.032351465363272804,-0.10278982304702725,-0.1915572888060447,-0.13456362830917112,-0.0976213074554144,-0.05417525818579147,-0.052732301127204784,-0.0531536236335266,-0.05219498511400446,-0.054474576859560205,-0.05412235615947868,-0.0532610003248072,-0.053861800503902255,-0.053735149010705384,-0.053758802588325105,-0.052089604428240954,-0.05890156888353253,-0.07949634224404982,-0.1598772099125666
-0.03814128223857249,-0.03471464478758823,-0.038527101412864834,-0.042943103269132143,-0.05139676862425904,-0.048368835909809435,-0.04781198887497414,-0.04602821979291208,-0.05360696514402306,-0.05376450338385042,-0.052216158125048,-0.04674960410679808,-0.05318791419097261,-0.05114007525746018,-0.053588469576610634,-0.07268738951271381,-0.06791177360029739,-0.06671485963884696,-0.06237236354976484,-0.06257851283319112,-0.06401323480522009,-0.06378884470443147,-0.05291278817229758,-0.05437495030069355,-0.05215581128948152,-0.051792617436680434,-0.05347532075282325,-0.06052284695581812,-0.05354202770980542,-0.07178145277260965,-0.058948802859770943,-0.08456885462869602,-0.12331575457654474,-0.12737489226902982,-0.1362294874312222,-0.12904034880502818,-0.12656002732211452,-0.12448591127473937,-0.11392460575277133,-0.0839172888170292,-0.06131739734005439,-0.05429458546296976,-0.055068096847617834,-0.06873762370887604,-0.08496590437538934,-0.09322896554297727,-0.12330195360304465,-0.14987210003316465,-0.15993214855068558,-0.20465461917732172
-0.08286794797300556,-0.05373740269788466,-0.1686001496148567,-0.1733303525992872,-0.07197919668554598,-0.049921749316246496,-0.05000438903254113,-0.05426931598011351,-0.12140071915360186,-0.13323734981564575,-0.08040633930538069,-0.05513089721228239,-0.06238252477284925,-0.06409556250901514,-0.08490145906348524,-0.10726943840348682,-0.14340150836795235,-0.16219975354578234,-0.18916724285102832,-0.116932929877824,-0.08671328359838688,-0.09159722658016929,-0.116595120150721,-0.10631895098847288,-0.10893917387537201,-0.13296386698577795,-0.15547271903732574,-0.14926585720580185,-0.1520622384720129,-0.16426998157874875,-0.19008916615322222,-0.20683806601712526,-0.22325893409822184,-0.2182367291401182,-0.20886355420970754,-0.2076956670317558,-0.2090002270982459,-0.22092387435513905,-0.21648162582964595,-0.20205768048195794,-0.20035265609849087,-0.1920778628089582,-0.18924639190855785,-0.17761511566857482,-0.1853035292442871,-0.1850967855377217,-0.19264757876007482,-0.1901902753754932,-0.19577319251519518,-0.21440576254187355
-0.3,-0.3,-0.3,-0.21813796329265134,-0.16285996777266873,-0.12858000258241284,-0.11337277106075282,-0.1337285709568832,-0.16846001114601483,-0.18717230373466684,-0.2148170938952953,-0.20366458706714965,-0.20399033891606402,-0.20397595922214698,-0.20180891654994776,-0.20446934770777456,-0.21049016555480296,-0.2239381902369201,-0.21825854380993615,-0.21298682793677354,-0.19912629168641152,-0.21162427623028293,-0.2148549239696587,-0.24300898628206852,-0.2459716666210755,-0.22954584925542265,-0.21982051474177855,-0.21943884394669658,-0.2318017352987533,-0.24375022931690715,-0.23671865180438748,-0.24024453431081597,-0.25116219759156483,-0.2526857664970438,-0.25472278542854476,-0.2574688449398252,-0.2593761158956755,-0.26177090608472364,-0.24762140616492448,-0.2511326218924613,-0.2475771265163885,-0.2446387242920252,-0.24718424633361008,-0.23801696145963624,-0.2300482797434472,-0.23914903775477314,-0.24468443171955398,-0.2642283761902257,-0.2688629001654382,-0.2760862733337332
-0.3,-0.3,-0.3,-0.28705668983729776,-0.23822194649006298,-0.2059904570753419,-0.19091330934157258,-0.19573105621703116,-0.21408527014646297,-0.222255674380036,-0.24517820800522305,-0.2412285337084955,-0.23286629595474748,-0.2233213096928557,-0.23133770476581167,-0.2315990864126695,-0.2426821158548538,-0.2463447844985429,-0.24505737283001014,-0.23988520112262032,-0.23860051902692603,-0.23485927178594787,-0.24256998901940038,-0.25956904445315876,-0.25849363150031157,-0.2569459946451569,-0.24442562427760953,-0.24611164685488962,-0.25704208914480786,-0.26579923104950304,-0.2733304376242313,-0.2632479522111811,-0.2566438111607265,-0.2621051892426212,-0.2610919582573866,-0.258980339511898,-0.2601985852267332,-0.2608726396316824,-0.2648109947684896,-0.2731535349283965,-0.2723152343118641,-0.2717710900084265,-0.26901069923930004,-0.26976267236663715,-0.27322690693642904,-0.2715514082325691,-0.2739039708386482,-0.29246616355171984,-0.3,-0.3
-0.3,-0.3,-0.2961477016155621,-0.2536660796637627,-0.24044391239284515,-0.21663205462192833,-0.21817641894743062,-0.21644112904802526,-0.21622364132365587,-0.22032507971589782,-0.22189533908145634,-0.240365423065392,-0.23971823100057432,-0.23447326612046926,-0.2327294215905857,-0.23255518169310424,-0.23427989793375847,-0.24394143472701657,-0.2457236497089852,-0.245283411427418,-0.2543441759588605,-0.25973031371168936,-0.2744528478728695,-0.28527682581748653,-0.28181046084723826,-0.2771741767049091,-0.27850802120830154,-0.2831338269810865,-0.28369580655401905,-0.29481389435646926,-0.3,-0.3,-0.299756513731423,-0.28917049890545005,-0.3,-0.3,-0.3,-0.3,-0.3,-0.3,-0.3,-0.2959035675264756,-0.29573519155046984,-0.29729296258012505,-0.3,-0.3,-0.3,-0.3,-0.3,-0.3
-0.3,-0.3,-0.298693579923732,-0.2787624914280566,-0.2747866342119469,-0.27858120602786296,-0.27322277358273483,-0.2703183130452677,-0.29112651739956746,-0.3,-0.3,-0.2996544739576204,-0.3,-0.3,-0.3,-0.3,-0.3,-0.3,-0.3,-0.3,-0.2903247939854979,-0.295063583226598,-0.3,-0.3,-0.3,-0.3,-0.3,-0.3,-0.3,-0.3,-0.3,-0.3,-0.3,-0.3,-0.3,-0.3,-0.3,-0.3,-0.3,-0.3,-0.3,-0.3,-0.3,-0.3,-0.3,-0.3,-0.3,-0.3,-0.3,-0.3
