0.1722804080865061,0.16643063081954818,0.16475896741725587,0.16300716698642284,0.1653351813379003,0.16360419165602402,0.16170923734403175,0.16297416417386615,0.16360932904463976,0.16731309324876942,0.1681853222975811,0.17080267496739457,0.1780247934880813,0.16361542474546642,0.1638660029062214,0.1635622855411572,0.15957506668437457,0.15283909914204175,0.15312947174527988,0.15335801193263146,0.154725996941797,0.15912726745453648,0.1622967365323626,0.16069459351499324,0.15973278360605875,0.16013646755370395,0.16041365707926558,0.16647174351905944,0.16790484409223908,0.1650628638265715,0.1620461063556177,0.16036899190978554,0.1579776610391458,0.1595367290422778,0.15819819611817823,0.162917760807129,0.16530375896219077,0.1653159406775826,0.1622049386229885,0.16007504862306499,0.16008795743517956,0.1600300431966247,0.16199442889917023,0.16220106822025615,0.1660247587151819,0.17017163987750777,0.16799042782001444,0.1719610692064452,0.17600728462680257,0.17480191026562072
0.18438421979625783,0.16603337742015936,0.1659436880685338,0.16722979617846287,0.16867384578021652,0.16768992578575428,0.19157067505584216,0.1680310568854945,0.16989536352146312,0.17028855730701362,0.1898028465958096,0.18014193755725055,0.17715043952548146,0.1674721827514099,0.1646895619250711,0.1731734940855744,0.1658802965076518,0.16256954725566233,0.1540028841568543,0.1542136582765195,0.15918920595743685,0.20090080242715896,0.16801820853486255,0.16232448248205034,0.16236689831980958,0.16145598555099988,0.16772376713099976,0.16913243191835647,0.1676914321866312,0.19506517892161013,0.16611546877058572,0.1626047833378491,0.16149671746875777,0.16122068904202885,0.16293160333077644,0.1655383324225028,0.1664029930702427,0.16909331272687905,0.16647937272495214,0.16785658695304392,0.1611728586788984,0.16391873496599035,0.16307304883713997,0.1671568754630538,0.17228407584160219,0.1734874946633986,0.17390017239551755,0.17796158384278496,0.1816063481551772,0.17928719292152498
0.18874571442454244,0.17587088706921222,0.17036934147260538,0.17401781818790676,0.17392262144267867,0.18423424062134824,0.21259856348370726,0.17845303385630598,0.1753316460640346,0.17658292903565848,0.20392188929128197,0.18049642876903949,0.1968682939262367,0.17712821172353108,0.16927024922140452,0.1710985831000402,0.16811100861228398,0.16803077310939052,0.16515601679952238,0.15602028167418877,0.16338053988865425,0.16811366986232365,0.17497197979455822,0.19747563064605533,0.1629065349798157,0.16918587566744717,0.17210549783393733,0.16784325982306797,0.1773958828208276,0.1912057701622072,0.17842751131016252,0.16641963238624796,0.16344758896217904,0.16411278878906183,0.166878252588947,0.16865498937066645,0.19433634500466812,0.175787725918613,0.17213207247380377,0.17713215486876602,0.17188240052600526,0.16517820119233384,0.16832085798093607,0.17552977890324742,0.19743660311683942,0.17811376793500056,0.18233426253450347,0.18031081828148707,0.18820998172138317,0.18397516543122017
0.19315072983055043,0.17848269858085355,0.17783217622227537,0.17708572244520052,0.2124673877522155,0.17932074054410224,0.17999856114301543,0.17856332119851842,0.20286546334920866,0.18295439224564528,0.18312195527848413,0.21202521442236885,0.2002552634240548,0.19516019525266595,0.18483966078598507,0.1712629523507758,0.1729446274941152,0.16807761648539513,0.17342376727312192,0.2027008205262975,0.15776281354413432,0.17739390650823245,0.17942390418237095,0.18057780495359108,0.17658117009837707,0.16665561990788172,0.14062734663665757,0.18184187794369858,0.1869749045979159,0.18016713258214812,0.17870957698564102,0.19463904205904073,0.1665438058244837,0.1678708295271338,0.16941344907505843,0.18119891190481124,0.1797580161461841,0.18112186050567644,0.18349959058135756,0.1813343232763227,0.17806348386434034,0.172677405090699,0.17629482853601625,0.17776283900139095,0.22192569968745127,0.18691408984568803,0.18653189082172617,0.1879593663127684,0.19345070420884078,0.18927586981727781
0.19830686792103516,0.18288596709684676,0.18485453399592042,0.18816926325516217,0.18384883706152114,0.2050761921281648,0.1853065247574328,0.1833716914252618,0.19164798145669884,0.18452643694885162,0.18563401081785275,0.18667249208507627,0.191411913692592,0.19034856006519837,0.18651256149709453,0.189430738890528,0.19121855538284271,0.18565076697118155,0.17117665213138636,0.19194660242939626,0.18033459446228692,0.1786649895465599,0.1829725279102627,0.18113448286488887,0.19011492406017416,0.25325307558708055,0.18428764177562904,0.19269638902150588,0.20668203381676245,0.24206964213676052,0.18596024690048957,0.16779870422342377,0.1894984746620559,0.17045845949141653,0.20102558276213622,0.20064873851505058,0.18519420609786522,0.19862222147421332,0.19770520175677272,0.1846867642179892,0.19850700378617062,0.17716611792081408,0.22591006673723402,0.1774565223308661,0.2049964716751312,0.19143581317057345,0.19015340300979214,0.19497657910103502,0.19696453372686795,0.19442190299707565
0.20053571910942594,0.19184619137650605,0.2009772647423799,0.18949579240112008,0.18911820495406398,0.1913326123509552,0.1989638511310409,0.21550328088569268,0.19804407251957035,0.1962196305307806,0.18689516688908187,0.2089257966067842,0.1943265106323068,0.1902829883822682,0.20424799744682615,0.1919081605956734,0.19196910847388857,0.1938645003822533,0.22462129484682675,0.18230606967015126,0.20523831233434672,0.1806760944060986,0.18761492535650087,0.19043667990111762,0.22875751880504566,0.19140006246361974,0.18570322806612283,0.19903624378681917,0.20873552393775308,0.1983721941726894,0.19592017485705582,0.1898164159838835,0.2257367088626371,0.20133439062797853,0.18804206032356627,0.22230596969884187,0.19232852429730082,0.19573013636349354,0.20906030171064655,0.19516973036513108,0.1885977689577274,0.21562449482391066,0.1794341220979052,0.19347727681256902,0.19206902802630177,0.19390445256933805,0.19196658182774534,0.19952813756711577,0.20053726331539887,0.19823303419876562
0.20338455530110336,0.19486979671217253,0.2272015415549746,0.19570168624138906,0.2447113288316252,0.200233215351857,0.20260696005072654,0.20267472284916363,0.202178678568819,0.21841797231622856,0.20427050667573415,0.19102520524329614,0.19459718977349136,0.19042016666550202,0.1938724033016481,0.19368471193282824,0.20251337103404632,0.2649052004732504,0.227283610034273,0.18911429934806726,0.18275413920991937,0.1913977110740458,0.19072693675214686,0.2006540191889826,0.19816971713392925,0.20406905446701587,0.20255063121228856,0.2024437979985921,0.20222136892834422,0.20122304109325403,0.19987278553679363,0.25463623151539605,0.20619213105408188,0.2227144440851454,0.20186538193938577,0.19816755245518589,0.20290577651451094,0.19882548649284965,0.1949478316039754,0.2262251985257801,0.18885128549581146,0.21175950931475387,0.23588586460155608,0.17912885249358826,0.1995740941752264,0.1972503842130073,0.1768039536813369,0.2059087875105638,0.20442025295480173,0.20164988603619666
0.20924511865979342,0.19996747253403363,0.20203648851023454,0.20195839324563433,0.20732506582827234,0.20326850341590488,0.19983109550755102,0.21327907482326766,0.19638931014528138,0.23885405827216755,0.19126598040807513,0.19907164079079137,0.18968847939623815,0.22090076157140284,0.19434107928057137,0.19618602232024307,0.2267583529936034,0.20244552468533725,0.21182259458573,0.24782715975640046,0.20844801684838243,0.19140990973201827,0.1983866210360774,0.19863895982972407,0.21441786767753615,0.20002800809959667,0.20707324252282738,0.22373143420009908,0.20425515198006933,0.20525658201837196,0.20535520778451177,0.23523894904047243,0.20866196030607764,0.20572106875535864,0.20493498691023534,0.20413835834114047,0.2042750720238859,0.2090273155633434,0.20124004836272874,0.22017383704600899,0.21327515779910014,0.23567649112252995,0.2152692147377021,0.2191930352344677,0.18051540455705706,0.16344212321383558,0.20589653139231673,0.2089640300129908,0.2069958991522435,0.20508633819189234
0.21379332702146636,0.21388481601196146,0.2069108456982302,0.2184603900855853,0.2097131902131525,0.20969926031503003,0.21269118762502937,0.26939209910364814,0.2097182170293043,0.2106099501243368,0.22682408707417465,0.19712917369568703,0.2152419508862383,0.19012491758287922,0.19611548371201967,0.23407176316910808,0.2133183141933519,0.21111458260923568,0.21007819583346266,0.2462436155840962,0.21361345794819783,0.1972815654879811,0.19787174844061342,0.1975969406453265,0.18940846630656438,0.20136620959824864,0.21424639202948156,0.21481155945159086,0.21115016028515585,0.20320661975771362,0.20603995591056973,0.23488478748488628,0.2085960721722957,0.20555904978387352,0.22285569437343355,0.2111411590599122,0.22685278808603226,0.23520599829089095,0.21809650755014315,0.20574781323988542,0.2093132454898156,0.1998125073458188,0.2163722920876407,0.20861535104906176,0.19714811423053535,0.2580946850681925,0.22304304442473222,0.21110179461115103,0.21065111947439347,0.20727388836512467
0.21555918855504258,0.21814606053238503,0.21323490103507692,0.22969235661547563,0.21041704625535657,0.26972357181779066,0.21639241401513862,0.20924661387656043,0.22766607054339436,0.2047282218410066,0.20454290151955232,0.19978521964285093,0.21411063492000482,0.24779960471609322,0.21035371802084843,0.20930584192234944,0.20243980148044208,0.2153409282688409,0.22495485545481217,0.22822088703850626,0.24048802542944764,0.23961798460194764,0.20768365618801418,0.2600160278884734,0.21740065596511943,0.21634458537395432,0.22680728218753557,0.21528362003230936,0.22058168599970118,0.2118989921702327,0.20379718504702368,0.22992468406677422,0.1968604405019558,0.2384471884022601,0.23327636943336513,0.2146869630757864,0.21663957671503223,0.20710292699381452,0.2118263708406417,0.21005249369413298,0.20681850005768987,0.22204919495115644,0.2092615046812945,0.2082261426056554,0.20021030511715016,0.23834251580962618,0.20212115919901882,0.20169184418708636,0.1996640760062752,0.20567782119762257
0.21136662237394618,0.2102181853700088,0.21293336606147276,0.21762249081398344,0.21699283694696037,0.22258118431659524,0.2302745519580384,0.2217471910356252,0.2302836548858608,0.1934638868404546,0.17332491943490855,0.19918370203152144,0.20753066373417722,0.20898910607368876,0.20014173852578604,0.24170269667287958,0.1946134456356407,0.207718461363885,0.20240259294602683,0.2077952872004081,0.22227640251019679,0.21702570522987305,0.23932104633820342,0.203110679386289,0.2180407215788366,0.21875040215673733,0.2168532386163917,0.22091720449986108,0.2409539118510749,0.22108563776176027,0.2133784174080565,0.22952618173147776,0.21771165950990568,0.21679523091319355,0.21479546042188372,0.23572359342253946,0.21495036823871952,0.2324383656264376,0.20680306361881406,0.21861093029257261,0.22416362351670588,0.21332778790048007,0.21231082334098836,0.2118369863504125,0.2039277114530406,0.20542065826262554,0.22348451377796907,0.20416884626245835,0.21131010924113763,0.20639509831250852
0.21401942357672232,0.214574938471214,0.21923828248690738,0.23488044593034718,0.22480128054436696,0.23717729279651575,0.23454984031369713,0.23035430321524974,0.2132776342327254,0.20395723539180796,0.21475673523128347,0.218062636896746,0.19100837120461328,0.18999101929386472,0.2023717207255606,0.21788940359081355,0.21106352652698845,0.2129162467898203,0.208483279436872,0.23238175538663086,0.21635689109784056,0.21187665679568082,0.2300645732714146,0.19951274785042403,0.2073294526138867,0.20308424772572284,0.20399423293164717,0.20893752737514967,0.2120230506317995,0.21218521358917214,0.21465155362953642,0.2229497590038477,0.21759417902563088,0.22201480624369432,0.23326074412136494,0.2105000550799192,0.2242671989004451,0.2134554064496715,0.24120407204216,0.22206138434359737,0.21969932784893167,0.2242702420229897,0.21565432566634057,0.20212805275130002,0.2078207884486721,0.2074940840876946,0.20864887827702963,0.20939198847224025,0.21109544840653674,0.2151063276379514
0.21496710511678604,0.21657959465071847,0.21532983180629783,0.22051671161863343,0.21985334048509433,0.21931813580579157,0.22007939026974044,0.22322852446055805,0.2403548127021619,0.2164961608096987,0.20744064154778996,0.22910891741470985,0.16407474991641924,0.20117632312563202,0.20070941834245581,0.23039100873221327,0.21639272524362332,0.2113965041166233,0.21322101091578607,0.22313194168738554,0.2171936516850779,0.23005969699111342,0.21416555174309806,0.18654281025980135,0.18125410889893245,0.17457654681607548,0.17689588927965294,0.1756953741090775,0.17777583809614356,0.19470614181812212,0.19088757662587535,0.1867823997988183,0.19452347694759003,0.20890592846794404,0.21230700038213984,0.2281449059115262,0.22618825560555111,0.23183657082305537,0.2076273090581908,0.21824138986573652,0.21924038329505566,0.219832504677811,0.22925630826066964,0.19602660783036824,0.22141035029591094,0.2188830259234807,0.20771931818169295,0.2149412339195557,0.20356810915602291,0.2024245460116006
0.20155753815054078,0.19912438634324728,0.193305595357749,0.1941926130907691,0.19740667248285784,0.1972042749635467,0.2104401156300911,0.20738293832473625,0.20447573836988836,0.19843210882554346,0.20241149028449335,0.2210113690083921,0.23648025608867432,0.20438318063302668,0.20816238209820445,0.21011181106872512,0.2069847632280089,0.202370718186214,0.20716117459450498,0.20712883973606233,0.19736509176694303,0.1970678252038474,0.21582300307993346,0.19818459333962593,0.23418450510593095,0.19413977930794843,0.17689553555950502,0.23047104582814995,0.17879640615770345,0.19173382710781772,0.22171426888786916,0.21408611442566028,0.1915524514857288,0.24833934835164195,0.2064928595380868,0.20629630302895413,0.20824900458641432,0.21668091648263677,0.22044014813660223,0.18836585778629428,0.2062196622802877,0.21153301397432633,0.20793798038833358,0.21639483587031244,0.20178097798279804,0.20028486749340904,0.198710738903228,0.20259798386749567,0.20081124746341547,0.20264513782205318
0.1954327318987541,0.1937634791223006,0.19586669317634894,0.20509888648880048,0.19814853684245604,0.21177552450058545,0.21441423997856998,0.22649858456335897,0.20063043788212537,0.21282677315213416,0.20084492045874017,0.18317035527053527,0.19653913091956543,0.20911218238416304,0.2263234813610622,0.21940728819947594,0.2069910245603755,0.2207819246308869,0.20760894455782414,0.23748991352910828,0.21198463058878628,0.1957942689695312,0.2044481222489137,0.2140597860243271,0.21157410948489408,0.20833811966067292,0.19313985307651246,0.18316903130819176,0.20680237341533592,0.19328776457501645,0.21744934302725877,0.19871115318626115,0.224965935069338,0.20930825745612633,0.21188374390878573,0.20751984558042094,0.22433648153921476,0.24423259722990212,0.21757838256612363,0.17901716922842026,0.22370132857405317,0.21234879383104774,0.21251028349754814,0.20730685508676047,0.221822071793306,0.20151655373545477,0.19946554746492898,0.19998112976606391,0.20723240647727512,0.20257240420717498
0.19583986692104247,0.19534565525293657,0.19431361864657684,0.199496222891331,0.20189558759370244,0.20426869497130423,0.2038913325284386,0.22243174327761842,0.2139018942260003,0.20121579946260895,0.19424383649289428,0.2019242376483512,0.20776434548262301,0.19592310409664673,0.18601842814602393,0.19201873618684318,0.19893894651199728,0.2066199930625606,0.2162616655670229,0.21752690926463103,0.22051060479422732,0.2506463259717476,0.22455317496505453,0.17772499148732188,0.20294894694816137,0.18633019904086784,0.18785563965709987,0.2424081820072269,0.21164478258396993,0.20910535163522934,0.19977682347941222,0.19917453701044113,0.2149456451418635,0.21711470397186222,0.20920301284424198,0.22255691029733013,0.21802205670124156,0.21312986095356956,0.22730656766170088,0.2251824880261964,0.22362543942467855,0.22860947377846996,0.21323616799408926,0.21607391027446604,0.21005960892836337,0.20429534918760608,0.20386804629314492,0.19152686205592576,0.20559324150445857,0.20143542751339352
0.19838326368826972,0.19587932886674644,0.20139996435924878,0.19584068392865753,0.21139651657303296,0.20681843666050193,0.23348657256437227,0.21029113879819,0.19936535946200085,0.19412874104811434,0.22099151883319484,0.21272625121265665,0.22640554257023796,0.20995043285027043,0.18448690055873632,0.19668664099652589,0.2228296241934284,0.20942660599958182,0.20730914166172174,0.2036434029379991,0.2091010211683137,0.20136463055324158,0.17020013706495063,0.2154400985087633,0.21815720536680974,0.20795081359751333,0.1831866655930982,0.19172189084431523,0.19012588841875433,0.19984955107942473,0.20353537215697298,0.18712609048546955,0.2116383883666678,0.2036021187810047,0.20392155071773171,0.19249952132309733,0.19770236655376616,0.19159891922215447,0.21979554137868004,0.21956077865198628,0.21920344063287284,0.21805992720644274,0.2151614941146087,0.23217608184089808,0.2114173983510903,0.22068030601829713,0.2051991399695184,0.1983629455491048,0.2024417955359195,0.20393381193443613
0.1992871723355203,0.19696683167441725,0.2019470305067331,0.20119576858624014,0.21265392200383493,0.22954420131188066,0.2116707627611463,0.21837496703492051,0.2063005729780638,0.20801507154565788,0.20107010119333504,0.20787219563404544,0.19206834638433168,0.18243891837700854,0.18392605793653213,0.2153880125774599,0.19595566063597644,0.19216454044650003,0.19293080634622348,0.1697991864848092,0.17293491989472584,0.177363717945576,0.22890171590499622,0.18637693893063115,0.20953140404483386,0.21034501813302142,0.21214487243379232,0.18837717842518809,0.20065453016899454,0.22615200965082832,0.214324792488197,0.21749370182046215,0.19197196402652347,0.17573132853856827,0.16854162977179446,0.16822885159439546,0.2150487456251689,0.18715569910791335,0.20461164143916308,0.2001191352559587,0.19419913801806277,0.2054893308527099,0.19830090133115347,0.2126532483309744,0.21264509566562895,0.21606617819276136,0.21535532705793228,0.20825706145739667,0.18961310632282022,0.19984354373957455
0.20030675047875632,0.19950905318536363,0.19737367518584345,0.20648126043749615,0.1984469043278744,0.2121966628634268,0.21193133138364992,0.21576444726916555,0.22094289326465616,0.20744558382217523,0.19765543104412647,0.18916337537961944,0.22027325726147648,0.20641959802552165,0.1699114231673019,0.18152464645096134,0.18340557414247496,0.19435414206520796,0.2042218673994115,0.20082524560682571,0.1675652058957409,0.2027288724612542,0.198908063364665,0.1753848828985241,0.2028762583542667,0.20316677047392948,0.17823481656627085,0.1920562324732457,0.20301957014120617,0.20630660564890269,0.20525207991656977,0.20660723351884494,0.19104982163159887,0.19864870407023003,0.17175131124508627,0.2130956759170211,0.22145445046617337,0.16832653835049435,0.16528489933883847,0.16579737377667048,0.16663062427257042,0.2007429451544597,0.20328622946385677,0.19736893513409992,0.20324465625883345,0.20222431464281374,0.20341088565495857,0.17245025827001467,0.20421993402293345,0.2011591002158551
0.19957170916888917,0.20423923984096107,0.20314807973234258,0.1990157366796928,0.22143979935566319,0.21241574638046715,0.2123159186693374,0.21208308092384248,0.21211968706716192,0.21189012641271796,0.20530712932578565,0.20425176148121138,0.19087483947563763,0.2062082116616703,0.18414214703752396,0.1948714489579053,0.1908179150938185,0.1933318394665873,0.19371142667989213,0.16997240291800933,0.1706026240076023,0.188868398849553,0.2279899839484011,0.20541888600949434,0.17572662812525638,0.1911551210682362,0.23660354926826338,0.19151082293784855,0.18881534051395732,0.17408358162540785,0.18086851882334218,0.20312206496155075,0.18668825380996348,0.20291590504509294,0.17901140921866762,0.1940058857812031,0.20684986555919205,0.20570839060772564,0.16881824787218813,0.203023566260497,0.16658954932171516,0.18508836154010108,0.1745469752294004,0.17500520509650908,0.19360271884237276,0.17122563270497201,0.15582272595587104,0.19866701272631,0.20056062893462268,0.19698563471526231
0.19325072793898954,0.17825105983701744,0.18201723063068947,0.1918533871768891,0.18334858434275,0.20179852832235048,0.19876474254731602,0.19678878586220158,0.1880502820554454,0.17189324403865686,0.16147771033388159,0.14748274076034548,0.18346293833068794,0.2089573465247502,0.2233963778925238,0.19331804708801933,0.2185040972883869,0.17415196936315133,0.1714372657591557,0.17025389211787917,0.20202412763060343,0.1721742430413126,0.1873751985155225,0.1814483194556953,0.23389918588619174,0.19027265109400818,0.19724076267707147,0.17381518625974637,0.21140937344334182,0.2043855510686503,0.18143838752830052,0.1908026984448296,0.22268964554856824,0.191393367195063,0.2070338514138167,0.18613178617152262,0.2127124794675523,0.18203961079815853,0.18123663656611344,0.19333352804525353,0.16828337305748667,0.19323740787411742,0.17533738289096926,0.19489794771617944,0.20080668064648513,0.2074054259871112,0.19835940854809767,0.1900016797395607,0.19191590874411948,0.1933477016736826
0.18899725660745173,0.1863069943107162,0.18185668618413786,0.19940012018785452,0.18627408009673754,0.18346877295038752,0.17864821072161535,0.184421960170458,0.18013624656604488,0.19414325511673766,0.16798100571204497,0.2007616478234092,0.18314602044257935,0.20043768569366574,0.19576656654060068,0.19636152695220763,0.19142416063906537,0.18575505089082536,0.17730886067325333,0.1707413605182995,0.18823916713095037,0.16505165698779087,0.1984411171347835,0.1940692538634444,0.21666872013456115,0.21111351189037844,0.15168211515924437,0.19978284115299197,0.16502145734272344,0.18587127727045888,0.18880072026667408,0.19310483117055774,0.21117731132807047,0.1885392011285737,0.23262111946394806,0.21273472558013584,0.18784960028205572,0.18472662710890841,0.21106492208590652,0.1838690097232388,0.16987048056483187,0.17648852345806862,0.19617237215225225,0.18915138074333204,0.19384799997835528,0.18803862666309887,0.18939618725126678,0.1927211801861219,0.1920038777921241,0.1922342639490829
0.1908704244799038,0.1890404795545965,0.19952891451704324,0.206990669757667,0.18634421057172396,0.19139012443326456,0.18365213357926302,0.18052968982003875,0.18045091413084755,0.1975066304831871,0.1775806880638022,0.1895809119661729,0.18137591202898354,0.19203859491538847,0.1874602794728802,0.18448798500737693,0.17763237110818522,0.17104831930407494,0.1725032859242596,0.14892522433419025,0.15306054912296702,0.20633618131057457,0.1846580184669091,0.17376046603858317,0.15649279306636674,0.19923548533656682,0.1950583299350586,0.17406531809643883,0.18649138277626404,0.20145127551550399,0.20333500854054481,0.18910593185179522,0.18743728731561726,0.2019869564685517,0.19413571326198317,0.2021883347732264,0.18730639689998027,0.20149313758393608,0.191045869311389,0.17591666132914913,0.17083723906766046,0.21420945704910072,0.1740392429116991,0.15943086973538115,0.17046792179436357,0.1900652706594246,0.1940566436541592,0.1934391314291022,0.19394578755518757,0.1922324843918016
0.19695323637141637,0.180811534200331,0.18088940034045198,0.19833137393436373,0.1871665487064514,0.195071228399336,0.1832352629800061,0.18298032706360537,0.18305953058077243,0.19511131557866843,0.15480359312944347,0.17858052452393722,0.16337137288065554,0.16406821600497756,0.16493507151233572,0.15979425206346087,0.1565037228892246,0.14600621607024322,0.11522479025418864,0.1546141587283505,0.17221630346559688,0.1745681689537445,0.1794933561520805,0.15330727940340316,0.1881898259165955,0.1849770223018074,0.17266278354233205,0.1812700320913682,0.15929047954371536,0.17019851259624033,0.1696931313305216,0.2009916314267135,0.17996976327308542,0.18442357281186444,0.18390869447134106,0.18623166749922787,0.20114625698636632,0.1835060601429755,0.18019704879998036,0.2100592770040076,0.20926521271327356,0.17550326692580434,0.184777473634261,0.20403359552814032,0.15605134631638454,0.15477031244530767,0.1850513211206596,0.18479444918654608,0.18484589700274193,0.18696847716139148
0.19247875368309308,0.19347748793408723,0.18190824780854534,0.19007902911828573,0.18627849167251495,0.18626455742471607,0.18617690064659428,0.2080796555202865,0.18239073884266166,0.18866085522961976,0.18788084589079052,0.1445494839534009,0.12887875674456808,0.12062925523507056,0.12054178360007803,0.1232758055271413,0.11767124167568917,0.12075874339360734,0.1523541929743479,0.1797533949182317,0.1628585994353241,0.15849387863974795,0.190361979676834,0.16454832571433828,0.15029916450795786,0.1589041406523805,0.20166752589553888,0.19182859147766948,0.16788669963274433,0.18509306218035468,0.1703514591565454,0.18278694274939106,0.20390088515225518,0.18093837281060376,0.19608518890017645,0.21578436297867712,0.18644034596204193,0.1865455206239105,0.19570392593301775,0.2177710638118583,0.1937529440190199,0.1978487841570723,0.17646292801864105,0.19001806739952254,0.15883894582506883,0.19032838845880193,0.18931169021405062,0.1846125044074554,0.18486789035110476,0.18633751269775076
0.18252958021664872,0.18869376122926132,0.18238364166752463,0.19675090602797166,0.18735892774635465,0.1863588089448687,0.1871432116531129,0.18854435042670964,0.18703949264606506,0.18289326977996262,0.1801978144120156,0.17551805868909306,0.1555398552599333,0.11532901860556478,0.15176143523522861,0.16216119235442694,0.10695983344305715,0.15190523139754195,0.1832557513867475,0.15755197204978097,0.19151654578516458,0.1482260021459348,0.14819175908937735,0.17030104691357445,0.1845014071600333,0.14983812940518368,0.17838439094573033,0.18436786432328786,0.17196767541147173,0.1953225451169881,0.18162449701060315,0.18356377291865672,0.19001383849984096,0.1900511014039976,0.185492034441734,0.20094249989079505,0.1923752047421301,0.18634775989271604,0.18832881555510195,0.16194323457018717,0.17943634996273689,0.1861725269362234,0.15950554978992562,0.15488406812751496,0.16206309762576007,0.17738694197952873,0.18755685968090738,0.185083394131478,0.18813014492698402,0.1871324987308003
0.16873677750487218,0.1700232272183971,0.16361576771648895,0.18787868330730711,0.18966521299908037,0.1892005856916396,0.21295914859066628,0.1890889732682982,0.19390813630681966,0.18803491876265768,0.18235813846888568,0.17170224904480122,0.1926747590725119,0.19106288361335985,0.1306163486384022,0.1368530307660008,0.15900579575193494,0.1651335456067563,0.15800702915391382,0.1576638198369363,0.17098748536890274,0.18305447586508797,0.14717874276445989,0.19543608269222879,0.13480147048173713,0.13598009908372494,0.19422024075772032,0.1837526483297526,0.19010916843078873,0.1881631728947061,0.17859852272249496,0.17823099882694743,0.17394831399706245,0.17773924430046423,0.17526172571064907,0.19448553423216924,0.19361204016572692,0.2042732971634392,0.18785180441870136,0.18644975084749377,0.16068686622617573,0.1609162852208161,0.16541938726513475,0.15501392528939587,0.15999591109653746,0.17155150447708983,0.16478052743853716,0.1645009137924271,0.18176972532615218,0.181483253486239
0.1649801018659672,0.16319002431236104,0.18807397576117715,0.19160887605237484,0.19045638904794193,0.18968518566553924,0.18960331838471378,0.19033488700907894,0.19028777926950338,0.1889475811516182,0.188843539176488,0.1762173685008929,0.18441070287437436,0.16219567495094725,0.1627889832728798,0.1563055640031061,0.12701796760663073,0.13904816138066955,0.14871728893434025,0.15112409710721667,0.17271315093285047,0.14934830065946808,0.1505590749251372,0.1696689968400413,0.12443474624355276,0.17065071668090365,0.1730053284566578,0.18324120477801284,0.18535504852649656,0.19276151869041058,0.17032650339548824,0.16062229588068302,0.15266166154366756,0.15505400813425527,0.15519466653732478,0.18383734970822763,0.1879207577245581,0.17802281038634554,0.16541228418097872,0.16354238440951774,0.1783688793250481,0.17651788522324474,0.13427935322027576,0.13431244559151134,0.14915630840117364,0.15254402230908778,0.1439517835311589,0.17528178482285295,0.1759872358724117,0.17479379476881254
0.16923933708841038,0.17096583736224147,0.1645858505363243,0.1759675465696879,0.18008200854849915,0.17702414998552185,0.17850817040936726,0.17755662552961915,0.17870247585852855,0.1805751805902987,0.18303658519943475,0.1811542510373643,0.17769540275499093,0.15557884582967274,0.1286455020726232,0.14214496574672397,0.14199154625624774,0.12930292638544674,0.12771787968766937,0.130669954051824,0.15354027351347455,0.1526844885796516,0.14878912314488169,0.15355406607435795,0.1153470468507936,0.10720748055182189,0.14207819653463516,0.17768954735269368,0.14162293928940484,0.18453231004790163,0.18279137802594989,0.17533960878316077,0.17884914476711264,0.15552964388251878,0.18306452318378433,0.18945401439378975,0.19422137010009305,0.19434510826358728,0.17538299478265737,0.16621474903028663,0.19034462717895934,0.1576634209966933,0.1310836870720239,0.1618611593232129,0.1689658186899103,0.14940178624450906,0.14085015572155296,0.1633291364041704,0.1698706483184786,0.1690088344256661
0.17562660443636824,0.1690330329774414,0.16845852655911178,0.16455671730492974,0.1582337283310689,0.15866165776580296,0.1575054798639063,0.1598325370748242,0.16210630985280358,0.1649403389566412,0.16612896222893703,0.1518938173976261,0.1526793650216457,0.13831052660983534,0.15066731341231834,0.15131755704859567,0.12713908816581393,0.14079510650707494,0.13319861673027908,0.1850504572932831,0.1648062284621586,0.15742154925661928,0.16760883848014582,0.14858215421171583,0.1661927714667159,0.09068094413885731,0.1834766476347549,0.18267300244997703,0.11516979391407753,0.1704799128848738,0.1556008984496916,0.15773128442872453,0.16188490399543817,0.15687208525921478,0.1660167130044967,0.17611015271900946,0.18554140526881988,0.18738005770797952,0.18443046224242576,0.17789354351785178,0.17141150466107913,0.16928678091710728,0.13145645150835342,0.13074691157957458,0.14514247710609496,0.11174043608804866,0.17507583219074116,0.16465015818527484,0.16374896404013947,0.1647356271786246
0.14405582504874484,0.150532338555305,0.14659131419454272,0.14234958541261508,0.1382481062741125,0.1343096144953335,0.12990552993604218,0.13215869498212077,0.13732435009613883,0.14238863270157495,0.14465197772794205,0.11017433125419668,0.12876625653263454,0.1288139301736712,0.13809941000282155,0.135022035449138,0.13592886505858362,0.13638860764555102,0.1302512274674585,0.16482679200415964,0.16848072028725444,0.17071000281277868,0.1596884095821156,0.12394675642490621,0.12223719896742392,0.15616613724693817,0.1588501011362077,0.17752283304431712,0.17903969694291944,0.10538937648842134,0.1108023629834305,0.14871728772385026,0.1516778798710811,0.15147166417246263,0.1573250663764766,0.16442745152926538,0.17724102962949917,0.1606708501558721,0.18003075669551966,0.17856745912713803,0.19208909259847,0.18046141321445353,0.1191423612539382,0.15883523336115227,0.11785141261581282,0.14931988992574557,0.1720705439329705,0.16650488048008313,0.16510470228063462,0.1661050968565048
0.11493846141188012,0.11721539181166714,0.11721916806287153,0.11521668991507497,0.11534028482032499,0.11551968978313182,0.06837341907973242,0.07526559059453819,0.09973000843897074,0.11017960407241326,0.11640755596749011,0.10110670128613679,0.1430576823258107,0.11884213452802703,0.11004590390365761,0.14348547841795325,0.12743630803433376,0.15336861095884857,0.11876111842023794,0.156590550306071,0.16292407343794219,0.1604745147568157,0.1606597464010006,0.15928845642491643,0.11216864310878967,0.10747762663990916,0.136301643079854,0.14732511442560908,0.14431659657669255,0.1074667616961408,0.1491033550252232,0.16543189544973674,0.1516820005288451,0.1516576950432208,0.16524602705468985,0.17593000937320402,0.17909592186722403,0.17665813359230487,0.1585353753516319,0.16212801844322544,0.15780848997623584,0.1664874764414321,0.17031100531292642,0.17616707041025717,0.15369306984260028,0.17125522595624745,0.17609837417723662,0.1749093814543542,0.16718229568012166,0.165509614310542
0.09018520901092367,0.0902313190354957,0.09038274160613202,0.09084273973256937,0.09163439783721924,0.09408874170677026,0.09513037106322134,0.03225975483573423,0.03921584957554515,0.06755917343984326,0.06556229295885178,0.12123572704088446,0.11300103312640236,0.11477147550070284,0.13475493536612262,0.13849276785552636,0.14475376728909894,0.13014763949213376,0.1372513688436892,0.14280958930799975,0.1453025885396383,0.14514290091173684,0.13720827357732945,0.1368366318639954,0.13720507723784123,0.11415655515696764,0.10319239138885732,0.09593343307205492,0.11353558144654344,0.15008494846228088,0.14923601069380546,0.16151772698620687,0.1534759643827997,0.15210108658880012,0.1585956823259207,0.1392370591169208,0.15173966550462764,0.15229390366471934,0.1396516554708164,0.13660920035358085,0.1476698637859724,0.1604657768477649,0.15148069788773097,0.152325129092938,0.15461394551111263,0.1636891368349068,0.1665514398339347,0.1650496019256194,0.1683475769875245,0.16549159923815293
0.06299862545909306,0.06407742770323833,0.06525069268490474,0.0671822918724272,0.06895639727244879,0.07080222307468746,0.0740960215795165,0.07477558178146143,0.03398584715409238,0.04819743937623798,0.1100000610420402,0.11116613499788308,0.11570985726863327,0.12434208146792083,0.12606937992982295,0.1270365667971889,0.1273077157233473,0.12354294757676533,0.11622378997776928,0.11228690661654134,0.11457553088518826,0.10906420525048452,0.10347871158488274,0.1063476697463158,0.10482369702153826,0.095865653712181,0.12614968823993258,0.12237109706275084,0.12327057301375363,0.12199234241584264,0.13692448089033066,0.13751560492604764,0.13722649016684454,0.13744766626268923,0.1463107056976447,0.1485966901628884,0.0841200823234003,0.09865101660475085,0.14949375879016605,0.12631547523107156,0.12195659800748919,0.11343692082372814,0.14834959556256408,0.1472457333134461,0.15357493526409538,0.1518771645579587,0.14898780335829298,0.15066316389609952,0.156267689628553,0.15813500704039632
0.03660902512712351,0.03918065632912017,0.04165805888849343,0.04396508127938974,0.04589913552244485,0.048234078562328454,0.05080559286709708,0.05290700684777543,0.04663784860482335,0.07490560102329862,0.07918223278497453,0.08950640870034199,0.09231309517414116,0.09145590670783288,0.09366675384113891,0.09124751873975989,0.09148468509052073,0.07949645749259011,0.055510468759243765,0.06564525166430127,0.03331680761977628,0.046708272142251345,0.03144623145719377,0.07079952364708156,0.07427689068540867,0.08041214298762235,0.11251032970742511,0.1089615798347642,0.1015897726023374,0.13716113747989425,0.13967012367792908,0.1407592417412822,0.13767551048140228,0.14834982835175553,0.1410423089508079,0.13966106030328365,0.12429633604660455,0.08831904443897343,0.10918859772362813,0.10398283215767332,0.08230351439775155,0.09493898103017968,0.12828405910120547,0.12809717033439702,0.13672051101578164,0.13496749258013882,0.12918546641716278,0.12747595959020813,0.13090980050356366,0.13186806619892327
0.015149568167393358,0.017456808527294622,0.01944950526244301,0.020949097026801294,0.022665672415000136,0.024327691940688453,0.026399479232223584,0.03836732373151941,0.042158878699117476,0.046636505729623606,0.04512665923207838,0.04463755900037496,0.04158793700756141,0.04784700827246366,0.04463234999968945,0.03582329391552877,0.029448650545013375,0.06370861627737562,0.005033837098515092,-0.0030193616237011653,-0.03973333211785851,0.08921272000625259,-0.013711627135167522,0.021411103311586185,0.01941973158748848,0.07457141353977195,0.1272919186225094,0.09424017349928773,0.08850944393991463,0.11939394868867018,0.12135270552830825,0.1358047766632306,0.13703811886423214,0.13605719354816173,0.12591162211439763,0.12380833816745013,0.10376749566258014,0.10283193592345623,0.08847038629348306,0.08006072484127796,0.03968254777141846,0.03255203369061829,0.07487321514488053,0.09675173336605378,0.1070400020087754,0.1106381146379411,0.10671838013141005,0.1049450191173903,0.1066799389859549,0.10893118122200587
-0.0006257561614455857,-0.0005719004229288754,-0.0011930088916961416,-0.0013765105032776902,-0.0005460437338945068,-0.0009223958301801116,0.004984143692424219,0.017195342454322773,0.017763685059234462,0.014661407334158215,0.016417630162188883,-0.00852422334287254,-0.018931707296731652,-0.003062421130681142,-0.0033591395459769057,-0.02896223761676569,-0.005773496925526705,0.03869910323034927,-0.03316489696431539,-0.035234383250607626,0.07386804854572313,0.07538939141675985,0.06107522303240628,0.011687585010369548,0.05966461753347032,0.0831888284005552,0.06761764355974371,0.07150802284187868,0.07218400622546282,0.09242246254755174,0.10197882920484017,0.10671498008129174,0.10501502019875507,0.10740179321151729,0.10474727932386144,0.10221724452613185,0.09755481388402823,0.08802470687137101,0.08830901537877674,0.09622862382088758,0.08004725480906935,0.026535943430062922,0.04365685758715439,0.05214909621798789,0.07364418888770032,0.07495697710452769,0.07969825675146665,0.0819825830785814,0.0807554058230662,0.07950663667361066
-0.2012052102827265,-0.17291155893123755,-0.21195145909730193,-0.21737728137952486,-0.12129090279253284,-0.004009864384527383,-0.0012739083902010347,-0.005201239616625469,-0.0012293195776479898,-0.021615087022953342,-0.004763965000919635,-0.023290210159088574,0.02099572589551323,0.04370567762012019,-0.007609596691166746,0.08769662725237298,-0.02811248538088755,-0.029975703277459673,-0.030342635766969835,0.05725274115260878,0.05544186456823822,0.06298135784091409,0.0470543854728558,-0.002013851165287515,0.03379104387291045,0.06159354938496817,0.08654924894890173,0.059186019690216585,0.06093817228603919,0.07407558177537284,0.07689052755701976,0.08037606508253159,0.08175857676661562,0.08125567668514365,0.08135931291315211,0.08059383261843157,0.07775557955191453,0.07711059030452708,0.07748155818143307,0.07703208215654693,0.06430769477786089,0.06442346753418016,0.06826733758157341,0.04411733501455055,0.033375776163997645,0.012838538121438155,0.04594363467943939,0.057440577228843985,0.0519534697114634,0.05155856299998549
-0.26409902477666436,-0.25464964122545974,-0.2590838249462338,-0.2541002933166597,-0.26016751927372084,-0.27351288290316506,-0.28843436111061804,-0.2535179145508964,-0.07049503337141667,-0.00153892031853637,-0.017514751527496233,-0.022291434769695685,-0.005921855874480553,-0.006864859325550882,0.04616017378749699,0.03383196000224679,-0.027976432136247214,-0.026539282158589448,0.033405724327409424,0.01289128191909527,0.0335739736899415,0.03126293121683104,-0.014986278293339667,0.038012927099023396,0.0550365420991548,0.055740375133887826,0.06128152165073323,0.06079436088130019,0.06054147071895929,0.06292942287002287,0.057243819223731736,0.058445668670920534,0.05854516259383682,0.059295403307709944,0.05927969236364358,0.05727340847791234,0.05712973163434494,0.06228642832447413,0.0626109949744155,0.06260582308468463,0.060134660706566194,0.05364692739871379,0.06655171766217292,0.02714054954622307,0.02407954127116231,-0.0017461211849231007,0.04268856290896521,0.03557686417023762,0.016569394278718036,0.021836137675398958
-0.293468669662867,-0.29039532969786264,-0.28912053683523486,-0.2860097652431324,-0.290231677257671,-0.29341090360107236,-0.2879111516275282,-0.15404183849988845,-0.016658584344082263,-0.005810848561251607,-0.022204840025586908,0.021152540697702754,-0.0174744508385465,0.03836118669485225,0.01657062269110011,0.032385172322710654,-0.015526511218720373,-0.024406370699805745,-0.022699250698095353,-0.0002916011237870055,-0.003720969962560378,-0.024112770463630567,0.038526395296773264,0.03996721099053545,0.039540695908672215,0.039790193592461186,0.04161219677379117,0.04210482923129765,0.04306028888956305,0.042176560137658005,0.03881395899858762,0.03640276883246077,0.036805969919382155,0.03820800419050982,0.03910881772856857,0.0378093691776757,0.04042054244778891,0.0439516166137494,0.045815603554190086,0.0466276204344866,0.04666811817029585,0.04746006881823007,0.043243567238343265,0.04353314130968468,0.027395181346517847,0.023539436627822333,0.024147578550712562,0.02718942580675246,-0.0003687338259295745,-0.0003844502348149072
-0.29741405776988816,-0.29772606772193544,-0.29698105241390943,-0.29582583403058044,-0.29691451505013705,-0.2911968558883248,-0.17697589663532368,-0.09821770581295002,-0.003122713579809839,-0.029756087092812248,-0.002919615133031788,-0.01950030058203279,5.969769704948681e-05,0.016011582798014342,0.03245888713188037,0.02107117903471697,-0.0009485759168559274,-0.01457315519292183,-0.01806196138249355,-0.021603379313990353,-0.0234801297656651,0.02364962245377513,0.025973518839223702,0.024389958680134587,0.023863824941760852,0.02195118740026328,0.021084148857528334,0.020783655519579107,0.02015966639950513,0.020001096798245573,0.018250183816104607,0.01587054046280444,0.01625600260872826,0.01834864481229235,0.01960024104358419,0.019311989407626302,0.024609034904367205,0.027887896596684798,0.029212914570883843,0.030623873733443142,0.03204102554104667,0.033721961914523056,0.02770841130105409,0.000849277809399026,0.0028905566293538697,-0.0314295908416052,-0.0003828842477420849,-0.00046286611307780627,-0.0022639014059182483,-0.018637415023104474
-0.2995136370685861,-0.298822645392459,-0.2986280706032417,-0.2980535782193396,-0.2921925302639831,-0.1961630556942855,-0.1466333043646995,-0.059914773941252476,-0.03342595641144347,0.0006640947989299639,-0.0013557477651178146,-0.010240794014786834,0.022625746743122652,0.02331705001007417,0.016335394583611003,0.025341969825387237,0.025686150725790825,-0.0009440378032771943,-0.012275802299513163,-0.006136112877822478,-0.014537728837205341,-0.0074031423131092,-0.00029354987676211716,-0.0003938564790895483,-0.00019360554262177535,0.0027570169378671023,-0.0004129622925935495,-0.0007520335380676534,-0.0003991299196489943,-0.004940747776709812,-0.005805620503518439,-0.0030038664796595113,-0.0009230116742359978,-0.003286206045698821,-0.0017394542414735468,-0.0013744338899276186,0.010493691579329138,0.007399088728666373,0.01188636018551048,0.017455321090101138,0.016234451268003172,0.013833203516962897,0.015829194639084866,0.009026447398795712,0.002845567653677682,-0.0105293569795942,-0.13725122553890184,-0.1654085097912649,-0.09815140128679446,-0.14415557673601165
-0.2982563431375201,-0.2998107445781641,-0.29881913659067666,-0.2937181022867226,-0.2105111864901916,-0.15843159467538995,-0.060328005843795954,-0.04444566259491389,-0.04534354059357259,-0.0034306657831273232,0.009461480778141884,0.014181789977400312,0.015718941641063966,0.01627671614226121,-0.009979804577438111,-0.0007187072637195909,-0.0031207553172770226,-0.0073625130176052595,0.041445354042756864,-0.004918564016329936,-0.001268131856044702,0.0493171042698288,-0.013275962731473363,-0.03437835138970959,-0.01033643915924526,-0.00662809026420845,-0.0163041795686367,-0.06313917150335806,-0.13257072693158953,-0.19618522239176575,-0.2371750597438974,-0.2647290650572007,-0.25412375652009545,-0.18290938760469383,-0.059199131478098535,-0.0005458899436192206,-0.0004214358748839534,-0.021174583747720008,0.005019628742113902,0.006651272948615354,0.0063438444436598965,-0.008370015214932481,-0.00030333052490165495,-0.0005256497745389453,-0.00042713423987591836,-0.0003432246611892693,-0.08842026820919344,-0.21044165729139205,-0.22336937953051758,-0.22698863516786721
-0.2990085566351129,-0.2979845550731758,-0.29344407153453345,-0.2128653345002417,-0.18906381801752956,-0.1636892177779235,-0.15098212159005003,-0.13051598922618574,-0.16222552905392496,-0.014240875072151368,-0.0005891603182863637,-0.00027098156824956107,-0.00041774345093960384,-0.0003100640967483685,-0.00039266835017917124,-0.013707021070411794,-0.13737541301085182,-0.1519205668885434,-0.10567788260195037,-0.05139150945161981,-0.038432935756101155,-0.04409833086232273,-0.07903067022699639,-0.13033960607760012,-0.19277954627326796,-0.2468572803015669,-0.2542329137029634,-0.2438662047767871,-0.24015542004120266,-0.24726425044069789,-0.25192725002564864,-0.2575743781163763,-0.25920695571606894,-0.2710601209857528,-0.2876017577213157,-0.2125883973311718,-0.08969825051636963,-0.0005471391421930582,-0.0011306873047288073,-0.0010120929560154435,-0.0004188370645903396,-0.0007319584580407911,-0.024269751493746012,-0.04515225037121125,-0.05925901515377372,-0.05435300438169941,-0.07862028750468579,-0.11321719366475727,-0.2145061916553338,-0.28821459211689293
-0.2959756156598496,-0.29310294420653143,-0.23990507279243242,-0.2337845014918004,-0.22250033232561228,-0.20876877425491544,-0.20869876514006314,-0.18633624738164267,-0.09959284933912703,-0.07097061681198552,-0.07523709287301221,-0.11178872315103273,-0.06959408611905597,-0.06889572240668836,-0.07001135748051839,-0.11843405183741823,-0.1319394870638492,-0.10102162775422843,-0.1058488158562238,-0.10163067135661454,-0.09400393446914966,-0.11455236486338477,-0.14590576475191633,-0.19741440807541064,-0.24167217529745924,-0.2826647639025701,-0.2953222516239674,-0.2879051641984582,-0.27983697422622417,-0.27879682300460645,-0.28383896259584007,-0.29051616105433914,-0.29247293048348405,-0.29209930781909726,-0.2975291762880412,-0.28646655297902734,-0.2866562905873698,-0.26730292246283704,-0.22058112274576747,-0.19527735268516233,-0.22478919530068114,-0.2500621301871267,-0.24640912922885655,-0.15217344633320365,-0.13249653817929036,-0.14553416654659207,-0.13533961134111572,-0.11921594549207572,-0.15584166648471864,-0.17215461890730685
-0.289379106910858,-0.2613285076680654,-0.25727350615424355,-0.2529588686456033,-0.25259015635745174,-0.24651555702049324,-0.23491702002332418,-0.21851771610791496,-0.2018328471532558,-0.21740232232532877,-0.2188337708440458,-0.23683150839480288,-0.24633639344099953,-0.2505443356312289,-0.25061849692559257,-0.28545252590832226,-0.2829777004732533,-0.2260429166075106,-0.16909991168016925,-0.15280578311734724,-0.15097250317517397,-0.16110282944227522,-0.17779204800903153,-0.19223748988983275,-0.19773465108349214,-0.2600873042772399,-0.2948287311284005,-0.29590447250746393,-0.29514103004120007,-0.29546301752399046,-0.2958606981637856,-0.29589971318804575,-0.2967439790096619,-0.2977598380001139,-0.29718319682589334,-0.29571128276680153,-0.29765814794123235,-0.295286902922885,-0.29564681057718023,-0.29595380109221814,-0.29751196838643273,-0.29548673261870173,-0.287452330835768,-0.25575590902865997,-0.1924627818512,-0.181389695260191,-0.16600253913709953,-0.1681848057627606,-0.17678708783006883,-0.18042785521327517
-0.27497350744055654,-0.27147997913389493,-0.26770768479093865,-0.261878007910476,-0.2583614353113427,-0.2556287195916225,-0.24559191903160488,-0.23991279682945388,-0.24505259275196448,-0.24754266934082378,-0.2560578666987293,-0.2771064043747286,-0.2917005337041829,-0.29776486555286086,-0.2974951813593569,-0.2934107792170844,-0.22551653797259666,-0.1980101648345033,-0.191043982638169,-0.18864808669399258,-0.19221219435510323,-0.19321299705832298,-0.2207578289833086,-0.230868823530834,-0.26572489757555096,-0.2832219427614193,-0.29447358606489565,-0.294638528734934,-0.29527100951293805,-0.2971424091470085,-0.29741144345556564,-0.2977744570642508,-0.2983250011417599,-0.2989183675952814,-0.29956247232800887,-0.2989693770736996,-0.29854389528482206,-0.2987668001747107,-0.2997688209248411,-0.2989654223565923,-0.29791179464722173,-0.2885529210528483,-0.2848403361820416,-0.28153229563903476,-0.2523999796640735,-0.23873274511832077,-0.2299448824057047,-0.2286163498020072,-0.21166146006919234,-0.21963407150118022
-0.28408931005810356,-0.2817503345691544,-0.28605951405193797,-0.27574583916517853,-0.26961827731146554,-0.2689629221146551,-0.2698283012130478,-0.2654149829384049,-0.25985021938516706,-0.25950157506558846,-0.26584212720443606,-0.267748729526691,-0.2771777520191856,-0.2914987386600887,-0.29275559814906105,-0.2738101288718384,-0.2727898515852712,-0.2288265200914362,-0.22274665472986807,-0.21229218680821052,-0.21432956897890343,-0.22161977701652208,-0.21773504061464138,-0.22168442678352088,-0.23079336100627793,-0.26818181067406416,-0.2879803720237154,-0.295457077137858,-0.2962287623536712,-0.2970773039685607,-0.296953447731103,-0.29758147129172763,-0.2979105009798965,-0.29835236174541524,-0.2995658951793817,-0.2995968043296647,-0.3,-0.2998088121517012,-0.298552007900483,-0.29822929506099316,-0.2980096698757901,-0.2983692805642088,-0.292998286670417,-0.29288615439502613,-0.2843737139008071,-0.2745808340991016,-0.2608357140776596,-0.23529549820709736,-0.23843596686508398,-0.24416006070311502
-0.28602535756011754,-0.2834695522379225,-0.28647064280484613,-0.2863014657918932,-0.28542884437318006,-0.2813415396506687,-0.27712881606848655,-0.2711845396958737,-0.27785618459539674,-0.2814740260776646,-0.2875045541143988,-0.2897304575869796,-0.291183533025461,-0.2900890421343163,-0.2875291726377906,-0.2814148726397381,-0.2830560702894785,-0.2674651080200068,-0.25412343098876494,-0.2361631340700865,-0.22957331306793638,-0.22511380976327014,-0.22787057068192584,-0.2600155311342875,-0.2607186270019551,-0.27114187241840554,-0.27232999704630045,-0.28806921917951134,-0.2978645482625177,-0.2985892948789969,-0.29935338798333283,-0.29931954471093974,-0.2998497200363724,-0.3,-0.3,-0.29981439377661256,-0.29981439377661256,-0.29981439377661256,-0.3,-0.29986403478456214,-0.29937810031338347,-0.29849551114169254,-0.29581597183233804,-0.2941451853827784,-0.2880808074618083,-0.27714548213863827,-0.2721334730020501,-0.253193370239198,-0.25721757269200957,-0.2597766948066927
-0.2903772439641531,-0.28685505534921485,-0.2886090552621228,-0.28605342821617946,-0.28566483162649287,-0.28490876588752106,-0.2844894359954786,-0.2827644627831521,-0.2820918731004495,-0.28210616727900023,-0.28429914528451383,-0.28909989970065625,-0.29056161820270615,-0.2916788551599908,-0.29192462296507954,-0.28258766196130786,-0.26689485313430833,-0.25324227428539503,-0.2524549096074196,-0.24689197653484254,-0.24670545260774557,-0.2487201942002749,-0.2673053553670196,-0.27946249614873614,-0.2830610146728311,-0.28915553656854853,-0.2926749301634968,-0.29252740369388014,-0.2921348673667731,-0.2985391470978961,-0.2988461533848959,-0.29915008643353314,-0.3,-0.3,-0.3,-0.3,-0.3,-0.3,-0.3,-0.3,-0.29893948017311545,-0.2954479416296924,-0.29369172847875163,-0.28741244421178813,-0.27735736886629975,-0.2774509349810182,-0.2777917767185671,-0.26351698986184235,-0.260513407894832,-0.26600612815044866
-0.2911200082994509,-0.28876279589142745,-0.28861617424234126,-0.2894377519231831,-0.2897631361907722,-0.2895048839220518,-0.2920638374864634,-0.2897985175638098,-0.2905224813411418,-0.2918211665105452,-0.2929159036500784,-0.2929100337838952,-0.2939604774969703,-0.29721813823321735,-0.2974997625194888,-0.29483844910744683,-0.28896636507589085,-0.28421107408695767,-0.2668984392541554,-0.26464947881409584,-0.2655903970889698,-0.26955757198489416,-0.273090869978058,-0.27263021471525667,-0.2794512801170866,-0.282722125372968,-0.28919934010921816,-0.2923247442410029,-0.2949278011750416,-0.29647574675416943,-0.29870798172767205,-0.2982746938009072,-0.3,-0.3,-0.3,-0.3,-0.3,-0.3,-0.3,-0.29873525812083374,-0.29576445213061786,-0.29341603329394,-0.2904660712896127,-0.2902786678307695,-0.29046973453837555,-0.292955096087614,-0.2919191888480416,-0.2862130700322027,-0.2682007850254263,-0.27324018219744167
-0.2939855951259385,-0.29148214307693043,-0.2911757377968784,-0.2949187106970893,-0.29603179828150933,-0.2953663285746789,-0.2963940453950258,-0.2967354187659422,-0.2983391067047007,-0.2971351158166619,-0.29749280325494387,-0.2970215474355007,-0.2964497000131724,-0.2969199697777974,-0.29530364813200083,-0.2952208302291209,-0.29487327200184704,-0.2954068109505707,-0.28850478022517445,-0.2837065649106762,-0.28602123043263117,-0.2862518149028651,-0.29197869763815437,-0.2910531705125366,-0.29089355495690705,-0.29376483045689084,-0.29659388059494224,-0.2972546483749888,-0.29695963209083054,-0.2971403863927066,-0.29687667853442895,-0.2983602426274396,-0.3,-0.3,-0.3,-0.3,-0.3,-0.3,-0.3,-0.3,-0.2998218449727826,-0.3,-0.3,-0.3,-0.29551229158746917,-0.29339462852938936,-0.2924057714625086,-0.2916150500551174,-0.274010985420825,-0.27375643944550676
-0.2942078116513326,-0.29363316342256635,-0.29413517137465894,-0.2952231320718914,-0.29526606126260657,-0.29723791196548577,-0.29786785444841224,-0.2983235702562201,-0.2987017362268603,-0.2970508043342715,-0.2975992546437529,-0.2973975949137237,-0.29681902476063143,-0.29736724129124426,-0.29672806019296877,-0.2983951050041937,-0.2984996435355249,-0.29854046192000466,-0.2978091669542877,-0.29413599859550754,-0.2933222883137275,-0.29355663372494906,-0.29674802250802756,-0.2963049413901211,-0.2971599906153194,-0.2982110460383686,-0.2979103481653826,-0.2996846569732978,-0.2997676195485326,-0.3,-0.3,-0.3,-0.3,-0.3,-0.3,-0.3,-0.3,-0.3,-0.3,-0.3,-0.3,-0.3,-0.29987134170109303,-0.29901020419757485,-0.2988789035293478,-0.2979895860562921,-0.29695147512388753,-0.2955944730863883,-0.2928769267683164,-0.2917510469623321
-0.29662171697634987,-0.2958042413728201,-0.29869555168019185,-0.2979792800541681,-0.29777962481590153,-0.2981691576236546,-0.29876968956027106,-0.29911725502445063,-0.29899815925499873,-0.29819382146472345,-0.2971173067392215,-0.29709641239609974,-0.29903475925570544,-0.29777037566182984,-0.2986295088321963,-0.2993963051180591,-0.29941777343818216,-0.2993331678905279,-0.2988144109282996,-0.2987336886424552,-0.2981191804342562,-0.2973411178855921,-0.297314811846103,-0.2977256227134849,-0.29784362303856543,-0.2985735440352181,-0.2994785820115149,-0.29972879694328153,-0.2998624766162527,-0.3,-0.3,-0.3,-0.3,-0.3,-0.3,-0.3,-0.3,-0.3,-0.3,-0.3,-0.3,-0.3,-0.2983836288273909,-0.29864560870856843,-0.2984693572734028,-0.29876858688672436,-0.29836541459620686,-0.29765920764199844,-0.29851827185475066,-0.29815997216573564
-0.29762924185283046,-0.29803742394590316,-0.2991224233609904,-0.29900798987423216,-0.2991222737930966,-0.2991208699419196,-0.2994854175968844,-0.29933134034736475,-0.2992410397735193,-0.29924098521799425,-0.2993375895755578,-0.29908166360960836,-0.29904760823895854,-0.2993716125756424,-0.29915050329870163,-0.29909655388422446,-0.2989760308092334,-0.2991819421476816,-0.3,-0.299056670671879,-0.298861923898954,-0.2987404779650134,-0.2996225412540808,-0.3,-0.3,-0.29988285513888074,-0.3,-0.3,-0.3,-0.3,-0.3,-0.3,-0.3,-0.3,-0.3,-0.3,-0.3,-0.3,-0.3,-0.3,-0.3,-0.3,-0.3,-0.3,-0.29940902420324106,-0.2985917185647169,-0.298299477811021,-0.29863290688138633,-0.29833509856989804,-0.29786546986906554
-0.2989657027547974,-0.2991322697068055,-0.29887475838338423,-0.2982189140058406,-0.29938297848163314,-0.2993653597301646,-0.2989796328507068,-0.29950970935336774,-0.29944045351268217,-0.2994422241273369,-0.2995182418468934,-0.29898304658941993,-0.2996877491817155,-0.29933105192193366,-0.29935342619505934,-0.29989401236793034,-0.2987563128639535,-0.3,-0.29970887904564325,-0.29940825286965106,-0.2989297622405351,-0.2996744672767637,-0.3,-0.3,-0.3,-0.3,-0.3,-0.3,-0.3,-0.3,-0.3,-0.3,-0.3,-0.3,-0.3,-0.3,-0.3,-0.3,-0.3,-0.3,-0.3,-0.3,-0.3,-0.2998710242890712,-0.29977093832089985,-0.3,-0.29909515327092207,-0.2982527462809467,-0.29882358597549713,-0.2982472370237039
-0.29986121462539234,-0.29934240309693183,-0.29870777772051466,-0.2994811364233548,-0.2993911398617272,-0.29942489770658537,-0.2987094859721746,-0.2996581797816079,-0.29960450964812624,-0.29960692718795856,-0.2996668079817631,-0.29977111540172735,-0.29920064467906027,-0.2990419536850585,-0.29958559148189795,-0.29872732375939987,-0.2988180769824824,-0.298048297850244,-0.29807767055810885,-0.2983281943965938,-0.2992603740971032,-0.3,-0.3,-0.3,-0.3,-0.3,-0.3,-0.3,-0.3,-0.3,-0.3,-0.3,-0.3,-0.3,-0.3,-0.3,-0.3,-0.3,-0.3,-0.3,-0.3,-0.3,-0.3,-0.3,-0.2994456656528919,-0.29837818051425347,-0.2992260534190765,-0.2989143371801614,-0.2987255056487333,-0.2983823614152669
-0.3,-0.2998836088017828,-0.29980182934679694,-0.2991386253975506,-0.2976464943816072,-0.2964648848457278,-0.2961139240261922,-0.29628093654911813,-0.2959981647223084,-0.29601446243371266,-0.2963291621905148,-0.2968742147717868,-0.2975268733591631,-0.29814822008204633,-0.29910119392351925,-0.29983345359281266,-0.3,-0.3,-0.3,-0.3,-0.3,-0.3,-0.3,-0.3,-0.3,-0.3,-0.3,-0.3,-0.3,-0.3,-0.3,-0.3,-0.3,-0.3,-0.3,-0.3,-0.3,-0.3,-0.3,-0.3,-0.3,-0.3,-0.3,-0.3,-0.3,-0.3,-0.3,-0.29911337737215565,-0.298857539982623,-0.298857539982623
