0.06505969498166365,0.059562775542397126,0.07356031909610858,0.07406118567536789,0.08566218767576023,0.07915885942097957,0.0769079972674269,0.07556203215905465,0.08195404079480548,0.07358195535740121,0.07228139078405514,0.06702837133668732,0.08468481973558142,0.07827647039038044,0.0701580183001152,0.06950859239693521,0.0872768752464893,0.09722988724855369,0.09834459791785624,0.09845022782138103,0.10166633512223834,0.09039171587584177,0.09878618498878314,0.10179389811614652,0.07086264347123869,0.06972714618462955,0.06950381439901876,0.05929221729064875,0.07662827704034098,0.0767971150141762,0.07681075593962436,0.0730366779847044,0.08367699146119054,0.10468145162650772,0.107715991315533,0.09827828363114434,0.0972810334835968,0.09740296486637379,0.06607079881504055,0.0721614344398482,0.08291425294983587,0.0869734670368703,0.08620311149068455,0.08590184978535931,0.08531173246356126,0.07197519216390659,0.056301088996159265,0.05875144394644943,0.058710432710747024,0.05221492448448925
0.05917085630079641,0.05588101395152442,0.06652984948622394,0.06656899777786883,0.06630690473276657,0.07542019131584118,0.07536945658591973,0.07570758774760664,0.0728490082209695,0.07345195780023045,0.059337052971812944,0.06414089555146207,0.06280001622419941,0.05903087628195963,0.059463396800757934,0.05330700988205364,0.08332674305110879,0.08032972634302843,0.08808769644445452,0.08725527042243138,0.08470895815459882,0.09369054057039308,0.08960963656941685,0.06722403508938048,0.07082539223063784,0.06194165280191333,0.06365076468125277,0.06308772828748334,0.05663551823824522,0.06022786201493864,0.07461395337207413,0.06624844659285371,0.08038626761324828,0.08606344730068936,0.08746151858751101,0.09344233867691498,0.08820989469628562,0.08456484211801557,0.06442095554473352,0.06849403894496256,0.0782540773294118,0.07136231552960784,0.08141964192394292,0.0734997200681288,0.07319012620178704,0.054692624426537384,0.04494066691506057,0.043234183751078,0.04740011022306598,0.03940288360161695
0.05398838330612531,0.05492599544005713,0.061817137420093926,0.055776991377079393,0.05571670625443367,0.05466475575515377,0.059601853596783286,0.06434246540544512,0.06662980713341347,0.06602714403870741,0.03634391453846389,0.051839140454798455,0.04087051617843604,0.05465355492030473,0.05216141239552602,0.06002082446366166,0.07144956454507684,0.07744628393980385,0.0835008604606933,0.08239880582290338,0.07953897304777623,0.07751403150021259,0.0578463649321202,0.05283575958150276,0.0534925768187937,0.053474295845346936,0.04596732053945041,0.053316096235381846,0.05240541973754402,0.03920860233235214,0.04426182130112863,0.06544290490097061,0.06749285381829771,0.08226118348334684,0.08478146722789408,0.08580206363416223,0.07049467900005732,0.06976025539317812,0.05780805226129676,0.04759612314084559,0.06302820785410698,0.0692810818781567,0.06973368815194854,0.0686248581656678,0.0629560100446082,0.03965349640345199,0.0358004489134397,0.037694579452212634,0.03702622682067898,0.019288455624801613
0.04796850872658658,0.04956590983804426,0.04712263154730216,0.05108206401395604,0.049896978346950366,0.04305016673582514,0.039051389952839036,0.049032938705682746,0.046851548300523724,0.04988329655048115,0.036302344494144045,0.0364088274660857,0.05180596828929718,0.04255256536530567,0.04702981511841968,0.06475794938055328,0.06557165875998049,0.07571277182915732,0.07435237321195244,0.07570621179000264,0.07226052796528244,0.07767170063291685,0.07345569662561231,0.05271830732539422,0.052586645483311,0.04780230685075971,0.05162752519482401,0.03954955107195096,0.039889659981013355,0.03626128221402302,0.033654391931824734,0.05987021089286643,0.055913135993683416,0.05783262734394085,0.059416749176710554,0.06384895718324289,0.05714353913443429,0.04401287427481827,0.05413793980261754,0.0525648250844466,0.03986832329674235,0.04423023834091311,0.03592381019804057,0.04439582569274987,0.04277350367801673,0.03963238126478554,0.03408307176610688,0.03576146545144304,0.029459580051363794,0.018156641428183545
0.04363293796080345,0.043948797953110436,0.04547137901011968,0.04712027155556352,0.04522233738347378,0.04303829996616025,0.03723020056037782,0.03655957571655041,0.031837932599317914,0.0331732457235057,0.033016352544906646,0.03380355702314064,0.031413830608955334,0.040950779542469604,0.03782648816327991,0.057134307290816956,0.05850726324579361,0.06232039125319842,0.059586826527766645,0.07030456691995372,0.07075360252560144,0.07096079780806741,0.04283965315802085,0.040775651356798545,0.039389965780427375,0.047047422676411516,0.04707610791834658,0.039498941096649476,0.032843303299284116,0.04030580936419228,0.0516229026324425,0.0336304133676545,0.02758899299578504,0.02978558502527392,0.0367450195299352,0.047306550843238496,0.04481909105778456,0.03200212211006234,0.03195887049380247,0.03154770730917694,0.03952387913660037,0.039505303266378744,0.03815876373935961,0.032772624859435204,0.03351409123380848,0.033961811708884945,0.03403946274114321,0.028666103460920515,0.019208779573612667,0.01358170248540881
0.034373913553175345,0.037338265043445465,0.03434925417522495,0.03520043486488897,0.02222000657400256,0.03528261568466819,0.03215625227855852,0.03162124645025918,0.03281075093545947,0.033118115676361845,0.03325398327289642,0.027213301960077273,0.03351749371291245,0.03113137100080998,0.027400641072321173,0.035029590085620205,0.044129937864432436,0.05624740631688982,0.059291313212333455,0.06499237513012161,0.06410550267978626,0.05680104776589248,0.0390231953027053,0.03840760633944648,0.03855342736844469,0.03909967150351357,0.027938533623515734,0.0318007927120033,0.027356807307830067,0.028230147002657757,0.043849566562703855,0.046937005715474225,0.023252880769958822,0.022063811566952772,0.021575323853446664,0.020970610781969178,0.030213629159424986,0.03165052179711113,0.02756980092772268,0.03177704375406068,0.031525321343908314,0.02039775251786954,0.021945340497851712,0.025079224057879827,0.022743774350722383,0.016291653530721387,0.028569168652754,0.028628787194000877,0.02865356169463695,0.012469884721414937
0.032150630655346374,0.030023290046769013,0.028916370976241577,0.026485850002008548,0.018275306947655775,0.022096755371006926,0.027489935776589855,0.02866610200705531,0.027539121086566993,0.027394489163357814,0.027117970318264604,0.025220205588556376,0.027164108985905263,0.01910870312635696,0.025626611752019628,0.027038734207919166,0.04047686323624517,0.04169766346308289,0.03847076990896478,0.03542363151939158,0.03273745908440434,0.02391072239370868,0.020726783926314444,0.026927810885190837,0.02764662477065353,0.023035229731177526,0.03097534237239732,0.031384370071216826,0.03633286761239053,0.02220280355696253,0.03298534317434745,0.03051521077670407,0.041127393782616206,0.019933625347445947,0.019016570802688072,0.02203071418966775,0.023203324867544384,0.027248222988372504,0.027458213452903547,0.027535673821497478,0.019957028230005332,0.020539415309572307,0.016479180508643207,0.007875660184375606,0.011867777311678415,0.020258516930762423,0.027920535436511077,0.027863638227598873,0.02635755024603354,0.011642653079446697
0.029895780676610226,0.023934474101298352,0.025531571966533044,0.0191589511103421,0.018133222971794413,0.009732439125635888,0.014543576013915517,0.018223700208662177,0.018423687529026653,0.021657026957443953,0.025182863611997324,0.025211917058420217,0.02507491020068461,0.01924012744779113,0.017705528998249943,0.01940955921232595,0.011579916643421248,0.02781268448737793,0.028398046091680375,0.027857541764875985,0.016527383522154833,0.015097659595870531,0.018832402889699364,0.018358742360146094,0.02335364602803746,0.023314875161730496,0.021995417636253706,0.021933145604163703,0.033456690242320945,0.04004630109342861,0.020274244862128605,0.007715411063006275,0.0322978394685369,0.03959823177506819,0.017858159269604268,0.018670048191518414,0.024414673560588143,0.02217380527234206,0.022748318033188088,0.023625783960008483,0.020622436644164258,0.01993897156361044,0.01707813942580213,0.008345530367188304,0.007720175703295047,0.008403715941289731,0.012046964518690645,0.009452911247683563,0.00895363813736322,0.012291190340970494
0.021192393376561418,0.022360948817882944,0.020862191189754832,0.01867900824128095,0.013625407239555664,0.01544719586254882,0.008441804755820351,0.013586474801144147,0.015523382306509131,0.020771062625970296,0.02504443321662263,0.025074055344709783,0.025029559396319404,0.018612123769417063,0.01597337056509348,0.015557267387771979,0.010839328519682922,0.010895212937240455,0.017002890960846093,0.016850364527586426,0.013160180335769756,0.015130070813094197,0.01846006201376582,0.021444237353279216,0.015343902625280478,0.014418844941281194,0.0179013033963301,0.021925419826908092,0.0427294435298473,0.020174837126948075,0.020142275002251905,0.03679155927768256,0.009739146599017014,0.021958730111511664,0.015697694600800574,0.017835952104134987,0.012520267455903825,0.02102873111711439,0.022622272589228765,0.015031736269939571,0.014435437343217993,0.01283937579586625,0.010609229834622565,0.007813284580260753,0.012117444606095004,0.007696220248920139,0.008477325685880934,0.0075114524988983316,0.008372958739715887,0.006930587625475189
0.009325554842537819,0.009984332836288927,0.010775210150347856,0.015607610387952336,0.012365537629467394,0.007761174593216309,0.014667294652704492,0.012557482017795154,0.017311427126892622,0.015519099502429296,0.011898465696615523,0.008409496780593965,0.015811447861000808,0.015222167937994987,0.015144208489206341,0.010489151869750813,0.013946401099009707,0.008103344412978622,0.010754592354529096,0.016845699647646907,0.007459597802058107,0.014072893135128134,0.01723534516241447,0.01765221926664269,0.012016705235576639,0.012764527298239252,0.01599759321566405,0.025753681852550975,0.02130777561272698,0.016246413847019005,0.02017105262276065,0.021999381014761548,0.022225262720707486,0.025336095536963765,0.02462704029707503,0.014561215488063285,0.013784147671791806,0.010727906785038958,0.019784065075847276,0.013594170006025807,0.012738154115923035,0.01057695576631122,0.012811512268228431,0.010477272074893124,0.006975786130485028,0.004845005974854558,0.006891999707714353,0.007141001601152394,0.007146436048540081,0.005500128870274017
0.007264064921388727,0.008382935554417761,0.008785590639454768,0.008220414232851012,0.013289279200705837,0.012349929998036966,0.00668962454343803,0.01610328312226414,0.013641412344594895,0.00795237579447645,0.009069234383386535,0.007812732473160064,0.007696504046234919,0.008820917334538549,0.008204039652746652,0.0141099702270329,0.007941926986562159,0.00885837908425794,0.007390625321047522,0.006379123826773698,0.014001595020308273,0.011575870107656134,0.01570187539614277,0.011428547774032401,0.013539236628426831,0.015881186530521466,0.011133632022288013,0.019789024302430996,0.018790764460066906,0.01384583391698946,0.0125484480402238,0.021043269414586934,0.009469445073348876,0.02484555007788425,0.017492518436453292,0.014551277066980575,0.014416564666338326,0.01282575405102581,0.008164285863835425,0.009703026273690366,0.010899919941236307,0.008673953646216486,0.008601742119876675,0.010275678290024036,0.006046464321789403,0.004484917989701917,0.006268774244924728,0.006867724422688702,0.006823616798455711,0.0051923237187541885
0.007516537874947905,0.007016118629141368,0.0070210990855505764,0.009350264523103837,0.007402510424783033,0.00621403821167633,0.006644448932167387,0.021910355532157557,0.013236950020614324,0.00732737723493772,0.007190170595461933,0.007909464954799416,0.007503160142121905,0.008038935370823366,0.00701562129981947,0.011645128092455674,0.012673590892751328,0.006947589282896433,0.0062056211697987425,0.00575910797020586,0.023642867830729813,0.012157042445868776,0.009228499124781965,0.010970788453233361,0.009034072221926176,0.009257788839017777,0.008522694531035912,0.02550024107749385,0.00895355332710143,0.007342651545136589,0.00432942579276084,0.012295424923108618,0.018944629333774526,0.03208657404549959,0.008481004193635835,0.01652780633659802,0.006943304127748305,0.010126310682500656,0.01698135422699382,0.008063514375199476,0.010783238072982626,0.009246906078611521,0.006846117948064401,0.0077187939012532064,0.005904857477790013,0.005964514129214075,0.004175317955811614,0.00373160940378118,0.004099939962643674,0.0029874667454985234
0.007083254698831851,0.00673673070858945,0.006922099189085598,0.005599030310858825,0.026838728703259065,0.02171402556285073,0.006206929394665886,0.012650515512796444,0.006928949757700488,0.007304325745621541,0.0062300612790512815,0.006191286408295085,0.008010576321240142,0.006497134338061527,0.007253892633768567,0.006992503243157529,0.0053122010427497125,0.005726003087349565,0.005957568018833546,0.006164529145273472,0.005548465967525792,0.005603899636938694,0.004794442760704456,0.006626737045033057,0.007832092683704843,0.005123554504287507,0.005089853882533868,0.014148677525316851,0.007492561444603596,0.0031487896535689584,0.003011406657403625,0.0022320501620593843,0.00017578762872510898,0.029266860782545614,0.010877245939804646,0.004966475001366538,0.002636090256136556,0.007620330956948325,0.009266776555930617,0.0077488582945617794,0.005570343413428023,0.004195302678017706,0.005595555957634077,0.005504511259330479,0.0028723991096687683,0.001984000939462109,-0.09933373805988409,-0.17681192297988213,-0.1464649758371792,-0.20636547397419175
0.006657750542540958,0.005870050843238783,0.0054977262532330375,0.02827647585175422,0.005548953274903676,0.005949735678129232,0.013744434011265438,0.023074457987915343,0.0037207997421406062,0.006231335481932406,0.005121806151263481,0.006190291263484907,0.006130916058685684,0.004716054204960521,0.0055287717284530635,0.004250269395309367,0.004971502667605997,0.004347749029103008,0.004086900973873888,0.00397581534023652,0.005540001896972193,0.004646986890278152,0.004780127338945111,0.004779451689785848,0.007937490825159066,0.0037881024771992695,0.0014468818123036643,0.006376166094085136,0.005561552287809703,0.00963635753229936,0.0019762413911570036,0.02471212971181728,0.026050587608658166,0.0011116488857331947,0.002948560645708346,0.0014200093283572928,0.005865510144886555,0.0026360426243720223,0.0030573797859752053,0.0037235544508521703,0.004063086096551992,0.0026914469199935723,0.0028911098330608466,0.0030682427076952107,0.0025421999434448884,-0.006017717959369822,-0.20224977251076132,-0.22741407653128498,-0.21982793948657797,-0.28032020460581836
0.0034197887361721558,0.004182299096624334,0.004840092245741654,0.005485738116959514,0.01053422877221648,0.003104591373754262,0.004531713401547466,-0.0014563687308492878,0.0019244053350654818,0.003956565384850332,0.004258946130018478,0.00348476379102707,-0.01898489090057167,-0.022587739998337967,-0.017877975099522093,0.0013484618359700018,-0.0846977118103155,-0.10441301096189284,-0.013581851231774545,0.002827336344937297,0.0037503101407322954,0.0033696816992735993,0.005988932578201761,0.0042162682911149624,0.0016304123810981172,0.0011390410602028648,0.0008498698131532919,0.0026414580791801427,-0.0026635230922736983,0.0006410555133089001,0.0008979007150304067,-0.010347362577266726,0.011780090006966233,0.001188555611887635,0.01385372838428557,0.0011409868477017919,0.001065608010133949,0.0018849856193538545,0.0024836658887210095,0.002772724100259059,0.0016137215262343422,0.003603827354630363,-0.05472075618162024,-0.16748663564392782,-0.2750738635180469,-0.2489089726189419,-0.22968437582841444,-0.2290271569169671,-0.2386739838390599,-0.2813640032749432
0.0020371888740596308,0.004192905561656984,0.003145148093384259,0.0028353013667017013,0.010702686566082654,0.004215883388492284,0.0020609460432772127,0.0031953985972236233,-0.00020947849005692416,0.00100773299411475,0.0006197975974059436,-0.19869614035316316,-0.20425698960578992,-0.22256010882840147,-0.15366295261946344,-0.19190001286715225,-0.19685114920174293,-0.022714183791607348,-0.0356687846718198,-0.005799318942056103,0.0026787931029213733,0.001514268218113601,0.0027501118744042517,0.0016069498682140576,0.002765568283587659,-0.006545626357479328,-0.0444701893867576,-0.06196398007001817,-0.12514873799868084,-0.06796346888711056,-0.019324403573383973,-0.00017358721502587526,-0.002332416203820894,-0.005284309708060522,-0.0009733191637376997,-0.005003839519827329,0.001040731801256721,0.0009333943733652956,-0.0503280744623921,-0.16627164058836635,-0.15335005327437004,-0.10881477595886335,-0.12401187718465237,-0.18339364780008865,-0.28480376064694873,-0.3,-0.3,-0.3,-0.3,-0.3
-0.05091200499356517,0.0020470573597915877,-0.026331350564217263,0.0015765278888840676,0.001698087371011291,0.0012781960802024015,0.0018051409938412606,0.002929074346321224,-0.03439210646707842,-0.09375670455433276,-0.2043845220686413,-0.24881971817768062,-0.24362554898797772,-0.23166933428326528,-0.2537155281423613,-0.2524684412599287,-0.24781399235605997,-0.2170973634456515,-0.20506940152835912,-0.03224276253006953,-0.014757626868184185,-0.011463779974577393,-0.006456856883704572,-0.01192189781112614,-0.03495929441569972,-0.22393332458316306,-0.27549006042322743,-0.27943097870275924,-0.25171188180991144,-0.17010324850893319,-0.1406880106147076,-0.1496965988469492,-0.09532490325068649,-0.07697547755916062,-0.0787429757108699,-0.1500695611456726,-0.09399868821607969,-0.0936002365317148,-0.09804410364912514,-0.10097144917807802,-0.15561304393980677,-0.1766898055484147,-0.2355876944705564,-0.29754396209703216,-0.3,-0.3,-0.3,-0.3,-0.3,-0.3
-0.16441136308418705,-0.07439269637847347,-0.07786558268202802,-0.09759795887268256,-0.10033227836107865,-0.04936728859915926,-0.013002048161622913,-0.0007667230216914385,-0.11439507272098068,-0.1142562986952086,-0.1833786975424674,-0.2440878895282472,-0.24386598561681902,-0.24541068327685714,-0.3,-0.3,-0.2993650646216217,-0.285096605995611,-0.2719725277097493,-0.14823785203451892,-0.038975714317320054,-0.03389004542276017,-0.03617266857326802,-0.0342133864019681,-0.1010623602497934,-0.19099929561663886,-0.23849588386957105,-0.28082058827971884,-0.2889682004013754,-0.2928921663830159,-0.29285107502393337,-0.2855302354709557,-0.2856529887743639,-0.2905234651676989,-0.2843424601376961,-0.29060389486968774,-0.29235209253837546,-0.2980570844588101,-0.3,-0.2649420725868931,-0.26215004372204254,-0.2703028282763795,-0.3,-0.3,-0.3,-0.3,-0.3,-0.3,-0.3,-0.3
-0.2783437376201638,-0.2843690486294214,-0.2950189715788085,-0.24744246163291306,-0.20913448114069721,-0.216401709375932,-0.20329285187486892,-0.19321701694056168,-0.19736165691199484,-0.2072705630754189,-0.3,-0.3,-0.299323707343512,-0.3,-0.3,-0.3,-0.3,-0.3,-0.13551410668283542,-0.04460008713668049,-0.038556481970368935,-0.036442143516846215,-0.034909308212968136,-0.03996563906891991,-0.08471188986203897,-0.0956452927588926,-0.18629438204371598,-0.26560861278496656,-0.27989332272661877,-0.2910403934409364,-0.29417117679269744,-0.2949877254726808,-0.2993702330210032,-0.3,-0.29931626866259003,-0.29911121898280063,-0.29931626866259003,-0.3,-0.3,-0.3,-0.3,-0.3,-0.3,-0.3,-0.3,-0.3,-0.3,-0.3,-0.3,-0.3
-0.3,-0.3,-0.3,-0.3,-0.28083910758128955,-0.2855379164418213,-0.2777845368878994,-0.3,-0.3,-0.3,-0.3,-0.3,-0.3,-0.3,-0.3,-0.3,-0.3,-0.3,-0.3,-0.29596394785634333,-0.2940511609412887,-0.3,-0.2719381449258478,-0.26125417930484945,-0.2697034650889527,-0.3,-0.3,-0.3,-0.3,-0.3,-0.3,-0.3,-0.3,-0.3,-0.3,-0.3,-0.3,-0.3,-0.3,-0.3,-0.3,-0.3,-0.3,-0.3,-0.3,-0.3,-0.3,-0.3,-0.3,-0.3
