0.22050656426267742,0.21526043603453127,0.21233907765802432,0.2119209799598832,0.21279504706326963,0.20988109699483976,0.209951692823968,0.21093007333978828,0.21350899330975764,0.21127532851109673,0.21172538762787121,0.20984251938473136,0.21182556085834123,0.21369109544669543,0.21265197956413942,0.2139070010769443,0.21379476294483532,0.21377044685977462,0.21192951238841903,0.21293699187037446,0.2134616299914246,0.2108391368614369,0.2125315255311888,0.21317955919331155,0.21558156118439006,0.2141507238508288,0.20983251208060955,0.21404278333054558,0.21008376903291046,0.21417554436673092,0.2134059473810586,0.2135286808121443,0.21285962493846367,0.21415077841469857,0.21456805656017672,0.21116312347935293,0.2118389916291518,0.21087778145806438,0.2126464771228494,0.21190144221142693,0.21037739223825647,0.2096332216268523,0.21289792299305102,0.2124028749016884,0.21056674165995146,0.21240450605821543,0.21270603157193002,0.21288485081762706,0.21304707215487878,0.19410954194867627
0.22516432780787604,0.21845716226991496,0.2180618978056786,0.2177600659661974,0.2111105084107319,0.21066815336874728,0.2165085016756031,0.21426958911824553,0.21407518147556814,0.216694388096536,0.21606173429920153,0.2179538745145624,0.21319907503108282,0.21517967039635894,0.21541458952499226,0.21757469583592565,0.21546450688473537,0.21504599339393815,0.2156399168821353,0.21077470756317357,0.21331847984753155,0.21562350673324657,0.21196407457446212,0.21562880540459003,0.21592781205893627,0.2156971153951218,0.21628439317513562,0.22125062565586875,0.21513593583917756,0.21542472716594085,0.21359614389541742,0.2135804653593578,0.21053642428652808,0.21448016522681942,0.21641884960591382,0.2146528613088036,0.21702087333873527,0.216497509386898,0.2189440595506075,0.2169289596348254,0.2169462474240046,0.21542085932316277,0.21640108741529238,0.21717519616405595,0.21011463728113888,0.21378018233517776,0.21083697559787812,0.21311529223208078,0.2187298367621453,0.2205472657749086
0.226960156976412,0.22178458681099023,0.22049236824219182,0.22071407742270158,0.21815941964036914,0.221461110847405,0.21740100054239994,0.21673243621961732,0.21856782454782342,0.21442482056561055,0.21651657599319105,0.21774972070051968,0.22045433969601605,0.22035512480335853,0.22003094040317964,0.22063054911998836,0.22049371858631145,0.21941515152256091,0.2180854196922998,0.21859219639069788,0.21874993272637136,0.21478634470530417,0.21733915000041343,0.21767546285970685,0.21359637536268403,0.218994689738661,0.21673150677048472,0.217765485776506,0.21637941990145312,0.21741933167346056,0.2186751465498173,0.21689053695443727,0.21991521911234124,0.21721852761361893,0.21494941592954228,0.21694945328417742,0.21870997578053863,0.21070273156806518,0.2139622319905261,0.21204274910400078,0.21131135176690455,0.20963827874978208,0.21002001567075884,0.21262744302007844,0.21664202498996127,0.21897233386573528,0.21736767358452905,0.21235782436227724,0.2190558458764139,0.220509366182897
0.22902155382647948,0.22172690992170313,0.21985449265923251,0.2216762184485109,0.21653998274836342,0.21311025113335316,0.21926488389691656,0.21372295146350148,0.21525659584475504,0.2165002797158185,0.21708142389466922,0.21681536084570396,0.21742830845095273,0.21893608437265152,0.2177305441186323,0.21763256301436887,0.2197266682713281,0.21971732771476893,0.21798643611155377,0.21284233052507495,0.22242442897172113,0.21485543530000142,0.21447012984256006,0.21731533037090056,0.21831279123183112,0.21891470080254835,0.21766167391810626,0.21527127165047005,0.217811908849992,0.21828104295084225,0.21685434504964632,0.21586789283807697,0.2245872408243317,0.22224101157668483,0.21784068808566612,0.2180382338284028,0.21180866110235627,0.21372096917145192,0.211364977128667,0.21185749225412653,0.21102091816197932,0.22115231909776212,0.21042227038200437,0.2071335840287641,0.225947664052652,0.21561656374393487,0.21743008138976494,0.21789491524690668,0.20987486525658358,0.2023058729479526
0.2274932333072969,0.22178623773773745,0.21933312512937003,0.219802905131662,0.21990271362853675,0.21740149962290825,0.21724611760002036,0.21077576873547835,0.22089058231534608,0.2122177970760203,0.21408773624071725,0.22172471032017477,0.21705301972575272,0.22022501655616777,0.22129129666333502,0.22107187826212857,0.2209036677058423,0.2189574591032713,0.21973571730056107,0.21753445716001527,0.2179054205323891,0.2165265125075678,0.213851851325388,0.2220152003387781,0.2221421500515069,0.2151506721798347,0.21070568276854262,0.21405256592708874,0.21649589321254115,0.21764289212687574,0.21599237069839292,0.2222182634802803,0.21531824861516025,0.21581886622027902,0.21751823979165283,0.2172550663414655,0.21445607756494298,0.2105187827292603,0.2125133114175634,0.20890161558190404,0.2090637826624578,0.2103686507255905,0.2097911450412738,0.21295654212996948,0.2162807986562966,0.21655271689842218,0.21643586684031238,0.21216439520889696,0.20598526833456748,0.2066821130268669
0.2208160311121097,0.2174815929251007,0.21853961647802406,0.21823424596430924,0.21942983264183896,0.21088035142877307,0.20976200336544024,0.21345612193485403,0.20917415226129168,0.2118818628002896,0.2148896737847066,0.21505533609340236,0.21921517440598162,0.2231673260566384,0.2210485315552906,0.2179961082104648,0.21683245404531157,0.21783155505212773,0.21622698812914004,0.2161285644087204,0.21569172309471893,0.20569170059476177,0.21218867855972998,0.21116515753930865,0.21775887041333225,0.218286963395016,0.22428043865639413,0.21895374432996254,0.21735646719963495,0.2166842448292748,0.2151573412595906,0.21934645034697925,0.2162229055108621,0.21501287956554044,0.21765927392597,0.21870159692952626,0.2185224178596452,0.21289968774173024,0.20980512402861376,0.21145617277422846,0.2072256353100201,0.21301485185106045,0.2086568084868248,0.2133690438005977,0.21600883935870527,0.21588744273416463,0.21189242507781358,0.2156387188652735,0.21273494789221245,0.2019734549920228
0.21534036634015483,0.216577176522882,0.2186000949332683,0.21757465411695462,0.216105588214529,0.21444213372663237,0.21423849978280896,0.21268665098871858,0.20910219297895777,0.21477747884799417,0.21457614106051895,0.21566764186401832,0.21917578615922598,0.22223860467593368,0.22095563923684589,0.22145538986638785,0.2197065162937411,0.2149974641627925,0.21626738780745858,0.2165111960330283,0.21583655912060318,0.21718119149059903,0.20886567166278527,0.21650761488516712,0.21731118551698553,0.2106195634141374,0.22106800377199184,0.2106146580120444,0.21491571073763696,0.2145804357163357,0.21439755276272857,0.21570565688226323,0.2170660657210593,0.2129906384092349,0.21585659735901946,0.21788984166857744,0.215010438928177,0.2122561514294289,0.20612109843597246,0.20311514108403256,0.2087201981340366,0.20478487053398675,0.23868126483118512,0.20834502496230878,0.20603939039536145,0.21294943234580194,0.21383564097394053,0.21013609220266802,0.19675026068610205,0.20152709727733215
0.21512926331875112,0.2176795122903616,0.21785456614539198,0.21685284300241803,0.21248590040161755,0.21564023488579184,0.2153329155805639,0.2063010040932789,0.21015330992872147,0.21444835076510524,0.21296377072450887,0.21763420996115188,0.21630833243202205,0.22473135513647158,0.19735929356232648,0.2130948678076844,0.21363628562605716,0.21369984051149812,0.21523864087572453,0.21497774615002754,0.21785593802744735,0.21713389926187757,0.2074322248533578,0.20891348760426434,0.2092518394793374,0.20705181521856117,0.21181395201001926,0.21153374999497662,0.21664757018325528,0.21493237062764484,0.21409249612195377,0.2126902241420956,0.21247562699367212,0.21487026249763042,0.2101994700351363,0.2064781272239854,0.21111510416246698,0.20783092426172328,0.20600337051826784,0.20297408284012977,0.20565687758528733,0.20368108022851808,0.20515649929307117,0.2055930624195278,0.20692537468620362,0.20602231035741458,0.2079295326327608,0.1941160440122702,0.1973933644053532,0.19578646006050662
0.21458159439441843,0.21472602479146327,0.21587890880205626,0.2156228503727006,0.2144147161421026,0.20888964058071488,0.20757052216845917,0.20532881777843323,0.21046806142705402,0.21300822560741264,0.21280390860182447,0.20927850084845623,0.19839077277070416,0.19181352821346617,0.23575243435435697,0.21348741032418003,0.21076823187589414,0.21465166634256236,0.2060860175770766,0.20955125632952845,0.21367115827118885,0.20728572320664723,0.20588683670766075,0.2034473385963163,0.2083203702396449,0.20641256983130615,0.21079273631142512,0.20960961993343594,0.21083100281977576,0.21438543609565855,0.21298349163618938,0.21362767016122855,0.21007895418965175,0.2121816212849639,0.20813122840125278,0.1984597291562427,0.187638694882388,0.19440476544176993,0.20128627474285005,0.2044932298079225,0.20551978528043674,0.20157846521565573,0.20351852750940044,0.2051401491666056,0.2043328926547629,0.2007613481614059,0.19407237310317954,0.1936192624260081,0.1954483026244075,0.1888712274636701
0.21323180196170194,0.21372931162651088,0.21330602980669633,0.2109533644690305,0.20366694398002974,0.20464431210813502,0.20039896734400306,0.20187730451292082,0.2102047082532817,0.21179891954678803,0.20565329494683943,0.22393910193503064,0.2074491413589589,0.19155211560251567,0.1925919104782395,0.21021176040162678,0.2106945027643634,0.2026230843579745,0.20527380419607402,0.207230495535858,0.20679011981709347,0.2057889769165257,0.19873644197647067,0.20034782385951938,0.20805824566728098,0.21297984298932476,0.20452627643652338,0.20403258585995585,0.21293062433405816,0.2136177761922109,0.21296373726279358,0.21264559220687754,0.2090825642590119,0.21166168752729372,0.21065979950731356,0.20642630708915846,0.1975084483199645,0.19356633881494661,0.1940723728131719,0.19918702062674284,0.19993776276048897,0.2024129081616318,0.20343216360304425,0.20341937735549373,0.19405028980960543,0.1926297363390616,0.19352122573361655,0.193003030106546,0.19453703509061282,0.1867276272098217
0.207236045422395,0.20750866387895828,0.2043789263248799,0.19965886648688205,0.1967292298831322,0.19827312248231932,0.201865659936458,0.2018612600251566,0.19630581773386105,0.19863797123922017,0.204493864782673,0.20434018854686428,0.1823094246422879,0.18975667309505234,0.1927433966755229,0.19186943150867447,0.20127738638696147,0.20028496960326142,0.19976566059442916,0.20141622800964823,0.20348220815820678,0.1894800590852928,0.19364015743825305,0.1939039341441645,0.20309001641388758,0.2040931494479054,0.20418643491521024,0.2021049072753118,0.1948898931704917,0.1954552405305696,0.18730451259947303,0.19829932999036542,0.20915067472467497,0.19807088190754069,0.20337178098487727,0.2030120014883275,0.1952271476598596,0.22346034711023738,0.1908459271489612,0.19783967170349726,0.20230374321645103,0.20230341113874092,0.19728797612649704,0.1905079012363591,0.1894732710404265,0.18726202383444998,0.19288570708920305,0.19290125747197917,0.19167251916417366,0.18440176156065705
0.1962661664092683,0.20407857562177378,0.19019317434709496,0.1954871970683893,0.19732857361346032,0.19485838782925777,0.20089600486762033,0.19404370998663745,0.1962263410005061,0.19624824566527765,0.20039601024251721,0.1907472222667399,0.18562463213540742,0.18227200838104501,0.19013942492377417,0.18447793090335865,0.19599694725689604,0.19571176265533935,0.19697308685120438,0.19445398224824487,0.1882409256689124,0.19058071130282347,0.19306342116816674,0.19378701687485336,0.180577741329999,0.181191534712425,0.19070959695071016,0.19813980289805305,0.19808652370570845,0.18355684727028265,0.19480424275996186,0.1968344468892558,0.20291429619284404,0.1938429295038936,0.19407195379661385,0.1933149826931383,0.18621867866662284,0.18876806053149528,0.1933963259748865,0.19710146872075074,0.19762402126917114,0.19711454241488788,0.18922882080738435,0.19703381581727158,0.18718422076495472,0.21541552613200912,0.20332402857108714,0.1901188804679653,0.183806712593433,0.1872109182074975
0.19169919646414035,0.18674975293713975,0.18894683300250004,0.19199530327562428,0.19718511174673856,0.19718711907953496,0.18289459872910027,0.1958858759029736,0.20188375936590774,0.19580485703597128,0.1961302731759078,0.17513647069670396,0.17991841120773064,0.18265566766300909,0.17697200627978435,0.18089906581204923,0.18945909923640902,0.19539197195324284,0.19074772613609955,0.18839433014620283,0.1848877437626353,0.17498968254127026,0.17319743796725687,0.17801311145051646,0.18097867810496976,0.17973935336959046,0.18587974427023232,0.18767262442775895,0.18141530840897854,0.18616174613801817,0.17805934460746284,0.17295341150565083,0.17329605107747345,0.18681244121148055,0.18651513202126666,0.187222636152658,0.1979086143386257,0.18423055493404317,0.1884343674994567,0.19231829431787,0.18900678288853778,0.18351848364278725,0.18101886706499362,0.18843905314217044,0.1850890322652615,0.18400572442592877,0.1732202240443702,0.2420347179747358,0.18280909737767323,0.1834140482270146
0.18498402942153677,0.1881058488824655,0.1918879384756373,0.18288223195944256,0.19009412927912897,0.1810257726174239,0.18534377644123862,0.1823337895629306,0.22045355168199599,0.18883770363718527,0.18848508637496364,0.1741685910072995,0.17401796261998248,0.17131935632751372,0.18027451042667492,0.18079958855739903,0.1737810818217704,0.18352213301215597,0.18394015899892094,0.18480018217166436,0.18049460538768522,0.17410516345766552,0.17157331848372706,0.17998119393767315,0.17820887906441227,0.1777406704604364,0.1775726626967586,0.16813633484255652,0.1830253548595328,0.1745631772794433,0.17682490301035522,0.1721404749975418,0.20060487714293793,0.18491056726711252,0.1862233010936653,0.17208958747394243,0.1801092314944419,0.1840485847487111,0.18207112848833346,0.18569835228210882,0.18538127655984876,0.1805551475518828,0.18132773148117814,0.18080755268538745,0.18094925074745583,0.17977758446183317,0.18471930981460244,0.18003603571032384,0.17920285103793862,0.17881790209423565
0.17619362954082152,0.18141106901202042,0.18283755230565088,0.18405749382132658,0.18230253400720944,0.17400222611776872,0.1794667855236253,0.18625682439472555,0.18777410656124988,0.17023424274646548,0.18827196248106728,0.18824998250802238,0.17102185835888262,0.1711006826670508,0.1642168325103094,0.17263431738312368,0.17843158779635565,0.18322190094431984,0.17813914173229226,0.18013597335522052,0.17335536939155904,0.17974590916963354,0.17034314374119852,0.1933139928431481,0.1696968915139272,0.17357196594348254,0.1727333348847637,0.1735496066074916,0.16704751297356457,0.17432153413222493,0.17388712123992758,0.1659949620494508,0.18502321332208502,0.17646342212497731,0.16673708624599126,0.18007670321643188,0.1786188861536286,0.1750766938731114,0.18532292985618004,0.17987947962519688,0.18316199617116086,0.1795707233339023,0.17903939623244985,0.16713721407538384,0.1725955025116547,0.16804023956126676,0.15391483101912895,0.2133688684887633,0.18622515906533105,0.17621862790446988
0.16783734224345764,0.175836282489714,0.17707392014510498,0.16900714628540012,0.17701122926599888,0.18542258543764892,0.16977689496753434,0.16236741580059158,0.17006729553999983,0.17002706661318243,0.16741244478374717,0.16381622279262606,0.16573547746015252,0.16524175930166984,0.15929888913988294,0.16337777261568934,0.1845720818219765,0.16393228989492736,0.1694582596231994,0.17542265175881372,0.17170249367630583,0.16326064200695792,0.15684745831654337,0.16649784502432635,0.18894172473116608,0.1734563727521977,0.1724578846751819,0.16741000670377562,0.1696329541667446,0.1648840284752969,0.16484757798437338,0.16036735519208467,0.16784818499185494,0.17396351624939402,0.1749955615184103,0.16088309340023735,0.1675557530516821,0.16912830059389106,0.1677103564722777,0.1587883955661895,0.16426487330296152,0.1609920693251454,0.16512857682679935,0.17212544237412666,0.1647946173426943,0.1464608697967385,0.20145449533296256,0.14987870214305454,0.21051947686658642,0.16908469345650345
0.16160261185539618,0.1622538422360232,0.16789037012930377,0.17300101964740497,0.16014843876095838,0.20127569764053835,0.15687712540922774,0.1532192722660041,0.15659867050084533,0.16345179948388633,0.16513328596770818,0.16504497883940697,0.15368535304461906,0.15664128242765918,0.1624903121563049,0.1568317273184318,0.16242812504152032,0.16013668770015635,0.1588789961190063,0.15481224736389199,0.1606482676823991,0.16335407525381157,0.1566077042647356,0.16625321337801002,0.1475633421553357,0.15015333139008125,0.1587160101821625,0.1630397780842822,0.16487494483297244,0.17321592409533482,0.16474488221442776,0.1533820398489204,0.15315871517118207,0.1640350228659257,0.1579270309957588,0.15914917897434622,0.16694953389192618,0.16728778064910194,0.16361527056752653,0.16762462497694108,0.1578685416511191,0.1606768124162411,0.16044224786807812,0.152178482341787,0.14785133360941688,0.14531052776371586,0.14530128440339304,0.15515817723938702,0.16721423616328088,0.23582248171235673
0.16042177513710756,0.15997806221090488,0.15951654951965774,0.15748110372226679,0.15927736828778652,0.17572535242252643,0.14847866892085435,0.15511459276532225,0.15443627368784943,0.16251805118409707,0.1673276699235236,0.16268227584183004,0.15866652481343158,0.15554655708091203,0.1544236440757466,0.15605000731574192,0.1526112637130157,0.14753396335099153,0.14305978360382776,0.15646675349232475,0.16041187559354547,0.15619064654041773,0.15644639764674292,0.15576085507161222,0.1452223516175636,0.15781945849433868,0.15849613137796723,0.15832571994793077,0.15959690715829547,0.1644635226303226,0.15723392731231398,0.1643791292711154,0.14852797101206747,0.15773752600523885,0.15907230233915204,0.15911220876430154,0.16227050721129413,0.15383623111804856,0.1869708304396596,0.16349598275080254,0.1577509125449677,0.154867686999661,0.15950965472824963,0.14612861387100315,0.14733131289061882,0.14277215150311898,0.1474528877833839,0.1562919628065933,0.15400013543215194,0.2437553763362011
0.15774066262679332,0.1530929192918936,0.15403382950933012,0.1554051990659818,0.15327889642052633,0.14758192552170732,0.14919538811925634,0.15635976963824338,0.14970663320447042,0.15180166506250495,0.1602974975475874,0.17950257402102524,0.15976692780068297,0.15371740668585313,0.15434041496849032,0.1477143552898019,0.1509514649697669,0.14814054036785393,0.1448647053914039,0.14387413717583367,0.15611095836096242,0.15529039593798633,0.15492621427315123,0.14676520048204214,0.1419732050645336,0.1600362505951013,0.15382796904550106,0.15666976254771559,0.15095907869904995,0.1566265883004506,0.1567507793547787,0.14833475218883532,0.1394349736313568,0.15869155963566692,0.1529075823803482,0.15896016252221326,0.15263726436302175,0.1608710258849507,0.1536869913498168,0.14886000444357003,0.15041961596893721,0.15050457326525787,0.14117675367741586,0.13565562090279895,0.15525422990372112,0.13989695166889246,0.1302049096606085,0.13203910339183064,0.1505963572870514,0.16815168708736108
0.1492807418382513,0.15022912741196415,0.14934980897338906,0.1453862414243306,0.14746330952568518,0.14876366301282853,0.14347234892382998,0.14964950536260935,0.1547196688845369,0.14940487163766167,0.14676498419374717,0.13646230472233314,0.13000831613964936,0.16532668334706538,0.1496710611233634,0.14163288501504565,0.1466443657823829,0.14405231399972004,0.14258370816918314,0.14037111957437068,0.15324321706319222,0.16295800545221897,0.1480950595351555,0.1417848628709605,0.1466385915252891,0.15934930906577444,0.13765968266341796,0.14552881487486724,0.14816361082140264,0.14848439320414067,0.149086673828263,0.14740297744416886,0.1392848651140315,0.1527597419241907,0.15288501016639447,0.1466891717107764,0.13942150651753202,0.15053928378077702,0.15351967574880246,0.1555739803846826,0.14758324749301346,0.1503250394547213,0.15010991777196495,0.12434878392533062,0.1421482824404792,0.11940285602355002,0.12489834008091186,0.13036094455002506,0.12405782801608267,0.12377866598339514
0.12102813260061779,0.13312315727266344,0.1419486869017637,0.14733932090885973,0.14734756255756656,0.1434326650143638,0.14040540372386748,0.14334188700004846,0.1489005165799863,0.14887734368252753,0.14306019434602493,0.13682231756252136,0.12904401908928453,0.13506779777848654,0.12479279888038951,0.14084816000253725,0.14002961722498813,0.1407109169134606,0.13541289291936537,0.13998087540653134,0.14515810455348363,0.14167523168286392,0.13882831466854606,0.14145391393567977,0.15648357944586558,0.13647859210926522,0.13803684735375388,0.14011926965424254,0.14153214568849035,0.14050003252483265,0.12687817550622085,0.13547570268395412,0.1441955236034715,0.1390899279497252,0.14664534805450913,0.1386051299389376,0.14945155203274482,0.1503817052199334,0.1502914649706933,0.14751135518705577,0.1474739725949379,0.1469481976275969,0.13317701405110174,0.12411074630170778,0.12178349669540961,0.11787508422773411,0.11556722798714628,0.12064721005540732,0.11405649249185056,0.11754416599104832
0.08797809180054166,0.10711179488310066,0.13456110896561765,0.13936787897929578,0.1433268605754014,0.14335538964991648,0.13780546323124207,0.14031676368468993,0.13025802253092952,0.14148387508981997,0.14158710957725193,0.1371029296875549,0.13909581720988826,0.12937356743871747,0.13644816193840292,0.12366707390163499,0.12109155952093743,0.13268615549611756,0.13405790376304844,0.13131187877413703,0.13792221192505533,0.13565060888167696,0.1306933659355048,0.13225784144211203,0.14093997499645974,0.18877455853430553,0.12344359832547423,0.13436527166362533,0.12183897757870141,0.12314437293020326,0.13286201495699615,0.13481535382443727,0.1350146106049374,0.13303832739484056,0.1385157009077011,0.13793619511093305,0.13999968790834,0.14550817283632658,0.13623097225045167,0.14687944550214238,0.14874433431739784,0.14130719030515873,0.1449406479947272,0.1282297166547045,0.121217017873943,0.11981376332708468,0.12954380318137695,0.10408895021872953,0.10037770686829124,0.10397108211777198
0.04918536926392315,0.09171343019393238,0.11679555875344906,0.12831155045229756,0.1267652041711829,0.1377278148547884,0.13105445720107942,0.13948356848197818,0.12172109906646762,0.12845982140717332,0.13316772532512494,0.1320113821199052,0.1331605899476743,0.11762071768992119,0.12217576439208941,0.12136124994531919,0.1298515399048545,0.12496402689777444,0.12481244728557563,0.12742721189556536,0.13478800186766202,0.12540859695127163,0.13479097468119244,0.1556299798092552,0.12868496175304414,0.1250417332341535,0.11879272970191641,0.11870399481184261,0.12213977063923256,0.13103492420335658,0.1298484318287346,0.13140396214361322,0.13419347364826226,0.13616889153246972,0.13301555606220017,0.13791274308046628,0.13784208546443488,0.13597506998733214,0.1395140751836997,0.13573778866019967,0.13541384514319293,0.14026069849440134,0.1402929401874388,0.13918859349135967,0.12203148692683832,0.11585490366678511,0.11763413067950282,0.08677930663862277,0.0769540515934658,0.07849322479958445
0.0452033659744571,0.0727495756200112,0.07974370499074324,0.0867516123842814,0.10167589169334676,0.10583467776725267,0.11387301067882274,0.1200474846324426,0.125481423449146,0.12805868926482927,0.1139834446565326,0.12659331035900326,0.12634508720105142,0.12265879557237488,0.12072789151146332,0.11784970372507055,0.12034129497656015,0.10312303058848818,0.12024876603811584,0.12782018016642152,0.12538510619591875,0.12382300851992882,0.12526385430284373,0.16956206775545857,0.12719079394056082,0.12410370656391087,0.1081355086959113,0.1152943637979098,0.11966448363110523,0.12712710825275506,0.13278481008673962,0.12707678140234965,0.15099349045794483,0.12771562233006434,0.1366698550135434,0.1373552630341542,0.13724444650444412,0.13308824217441834,0.13048045595997027,0.13106478995001022,0.13121591577232164,0.13419686760392976,0.1338395186821851,0.12310385089988714,0.11269965711412307,0.11296714697554011,0.10332772977460053,0.08949458513150346,0.07266546288300281,0.06169287530043126
0.036841198067606766,0.04390268456412466,0.050832565129284635,0.057946955076623355,0.07767241633783498,0.08091799440554678,0.08973034175777864,0.09053279756293403,0.11065859260669789,0.10752207289164746,0.11661882117508394,0.11941264646846492,0.12051799936743095,0.1185680486508188,0.11847751717388115,0.11589521600955395,0.10812123409129426,0.0983215819949436,0.1136214713038466,0.11916268152099749,0.10718411371670797,0.12209930432731453,0.1321805484026715,0.12505992128632068,0.11378001210557605,0.11614550851078188,0.12238017397857509,0.11102541074247298,0.12131511146799875,0.1221941156069858,0.1240405460609303,0.12092483424912955,0.12676872843756049,0.12768215267349606,0.12973841477111728,0.1324078118408949,0.132682929454047,0.1325804831550594,0.1319878496295345,0.12927077464307066,0.12976851216143606,0.12903650034457026,0.12520508596872873,0.11482654742773517,0.1031268756733522,0.09919398648482275,0.09965828624821783,0.09277918561552984,0.06520171115153635,0.0614923261409077
0.02252375635583976,0.03317658894853025,0.031203331965893696,0.055628343850920525,0.06437001203736048,0.07247622922766253,0.07747314105731484,0.07945949604664784,0.09986592113003738,0.10513192691023389,0.1031009144006125,0.08733797542051325,0.09839819853599098,0.09604266455851737,0.10092236953039643,0.08636150482111851,0.09603722255885366,0.10568909907693216,0.09302797851499545,0.10650644376758078,0.11245797846820961,0.12040903629251005,0.09736850534756898,0.11330765837280399,0.11273700281755636,0.10697043998228306,0.11341749573351188,0.11274108722125575,0.11643892084031379,0.1110478387720084,0.10135381298272568,0.12670268363980325,0.11567206219468401,0.12669679520047017,0.1264722715144297,0.12406094984844973,0.12598923929974232,0.12688971183568742,0.12683874936075154,0.1264748917681478,0.11231567109371757,0.11426151817291555,0.1092216705636605,0.103192246060911,0.0949806017500629,0.09071720148655237,0.08559606417258629,0.08450433215092937,0.08274999349780186,0.05887321179114441
0.00787313393614943,0.00830582506706056,0.017494066813416746,0.02383630670021562,0.032057761255548066,0.06539537740832559,0.06896795613432129,0.0793371229677881,0.07933737345659676,0.0788825264498778,0.06777220601043467,0.0654123598596025,0.054793262804811366,0.056060041604653825,0.06915040713554811,0.08252512746960489,0.09155961200037958,0.09189694869040947,0.10118717773146156,0.10635621014562603,0.12671446908241202,0.09443167651047803,0.09587777989470854,0.09790095076838579,0.09489223951579107,0.1058684517542227,0.10619770570828574,0.10812666375852764,0.10661600142693009,0.10222468812271863,0.09418974485817869,0.09681921005649566,0.11014869617173928,0.11557721615940417,0.11126337505604372,0.10993349492108777,0.11520093030886928,0.11414522484422392,0.1147070891080365,0.10932694131787746,0.10863981122177825,0.10342633672827455,0.07452592190282294,0.0787774667165043,0.08110417720439193,0.08096239216835975,0.07740365830601642,0.07611415848626155,0.07046040717169039,0.0657651396106219
-0.004618838269785954,0.0001050292308814072,0.01760315241015239,0.022845684313755443,0.0358959916290236,0.053017583818757597,0.0646229288395322,0.06732726702569951,0.04607401249375348,0.04001185471605466,0.039027565983024814,0.033012857951190376,0.029575893798883857,0.041336015238257785,0.07463281822646262,0.07792057704187791,0.0806190634972637,0.09816412240765353,0.09977441392498486,0.1189433532756264,0.0859139184049539,0.081682263572602,0.08615408029615403,0.08978613555411206,0.09151461951650539,0.09837045220572727,0.10368131123061163,0.10465949430332384,0.10304447251598584,0.09000523644428486,0.09652379356953412,0.09299445046260497,0.09850747094379778,0.100713415712962,0.06848395645631175,0.07689767652548452,0.09212329764312477,0.08883525493936723,0.07938288336893488,0.07806731038386373,0.07954031604691514,0.07221666597291325,0.06525626801506428,0.05931321021423122,0.0629468379037663,0.06698143411211822,0.0689261612766457,0.06624815985258123,0.06534057540543678,0.05954129775023744
-0.004929203373518102,0.011505599162828534,0.01763509619546289,0.02232054158360753,0.03361757671279286,0.042778390810819335,0.0484032807959444,0.04711113251729477,0.04543977687064107,0.030545882459792915,0.02836483994009494,0.024351175668420176,0.03306402029895034,0.08091872751328033,0.06604138083632467,0.0759171091788548,0.09290175567654627,0.09509090527118165,0.10810879605651429,0.09776565244083023,0.0679990880823527,0.075751566086205,0.08181665103665801,0.08578188370184776,0.0869990674714731,0.0901313847713357,0.09673814968044567,0.09626604452263228,0.095479054202972,0.06950542423706331,0.06733013129177624,0.054584659275983896,0.059862698489038295,0.05034125586444595,0.046335598292275744,0.055744596031657254,0.05865277454140169,0.0507097211037516,0.029569859019250296,0.03994927909446212,0.02824786767221964,0.02940686117428748,0.03955042120272655,0.0490653955835385,0.04602576550320085,0.05159414249141481,0.05499076157093997,0.05595290481830967,0.048229342810676694,0.04194787553103794
0.006100141247622191,0.012517014812022921,0.014258988615632146,0.016865299132832006,0.02212133047631755,0.02304295735565444,0.024519525607714792,0.022830836998669057,0.022428535271132456,0.011526015853593096,0.009958497621062878,-0.02703556275053996,0.03599684385219927,0.06523814993340359,0.05888847237357787,0.0842195801296213,0.08687957553688898,0.09966937277861468,0.07362974726882839,0.059206901142921604,0.06964638731891784,0.06377680492989377,0.0597654430472988,0.0712983797484894,0.07889026128190592,0.07594168780160546,0.08410734130513757,0.08376700173546582,0.0764086094913819,0.06543766018287347,0.06288443191797255,0.05104616984462207,0.04939136665676244,0.04761024929755847,0.040408508901003254,0.03151470824118083,0.02284361815597448,0.022395709012420082,0.012846460567609621,0.015796195023670884,0.013851985313855493,0.019494554235054782,0.0255837827005387,0.035247324767206614,0.038406519038832215,0.03855621640828343,0.040371565335328964,0.04158851364419239,0.04181698872407183,0.03857944651640427
-0.0028134826772174175,0.009330876583579697,0.009849146910216705,0.009670727697881912,0.012320579072758152,0.013695597007278801,0.014355831052266173,0.011216816820599284,0.006425337689841766,-0.05538662001318402,-0.027238029626669828,0.04476766536383823,0.018974963374238422,0.03701000468911233,0.06801009698747428,0.07292495414085505,0.07745515805573483,0.07769770797598806,0.06784032814545152,0.06281403788559974,0.052812891498619605,0.05310019081899786,0.053013362049079145,0.06456701524593435,0.06686756954260818,0.06743533560172905,0.06938400221278898,0.06559252252862775,0.0601660687394867,0.05828015231005994,0.05315463147563867,0.04888761933668946,0.045401625099695114,0.044588081521886945,0.03485751413740591,0.012263194155651433,0.007238528285540679,0.005684350455323731,0.007547224984577613,0.008733010348351073,0.004341750014908398,0.005137502308549101,0.0037200363375011975,0.005540675954841831,0.003248097146530236,0.021337438269215917,0.02569837183802451,0.028177539410636734,0.03560800322815537,0.027825582604118906
-0.14937611217491975,-0.09530116146263082,-0.10459095025980288,-0.12192958639698369,-0.12910751471675763,-0.12595477412371225,-0.12601242769992296,-0.17311997830062964,-0.17652113980750278,-0.02774934879131658,0.007899336203556151,0.014225715114930162,0.003987005010974862,0.03458090771821971,0.042056946776429543,0.04861353419329058,0.06204373886025198,0.05452643736353457,0.05697425505472591,0.06416607564399926,0.05438834167936685,0.04475681512930214,0.04280720596886737,0.04379862827321177,0.05588262177084072,0.056988553882769924,0.05794208492400549,0.05615649474240776,0.0518638949723466,0.04161209585354704,0.04382819836317647,0.04253312907259255,0.04251835647812319,0.04111842767890918,0.031158387294019617,0.015071973663709968,0.0069967190470468866,0.002830387209726801,-0.0026379018890729353,-0.0070268366932109425,-0.009369348587182363,-0.02317930454242467,-0.015780133951985884,0.0029066840706831595,0.003978324297828005,0.00851777022221005,0.020203548471295518,0.02327512659897675,0.024898872175509082,0.015546722214797694
-0.21700537300685227,-0.19415474387751808,-0.2105992186472058,-0.21771901815819536,-0.2222822280310083,-0.2572373341887645,-0.24236870757949996,-0.1937209730025257,-0.048503974133457785,-0.02284257461215172,-0.008859402300991864,0.002827625755503717,0.021534227924892166,0.021784950743485097,0.02768127101968745,0.04589096229731352,0.05116163365063977,0.052030187821319296,0.04141163584744534,0.036766420848205174,0.035990154323246364,0.036560688433144604,0.02262807109597561,0.034165727213581805,0.037324202963571196,0.047457503692534216,0.04503691520088424,0.03955507394012724,0.028175897737531923,0.03115371223443664,0.03536579913199304,0.033158743559548565,0.03181853920719653,0.033804973227101756,0.02253577505587098,-0.014384574116905885,-0.0006922898658287939,-0.08422143780684671,-0.20640318964217136,-0.22993794540769494,-0.2157727339105048,-0.20766395131224263,-0.15514257330969553,-0.13879023221971643,-0.003368364751598568,0.005300513601229792,0.007820319925542201,0.009692724978869147,0.011137851745170024,0.01246369727351947
-0.2679598347781353,-0.2655005837576847,-0.28347428309178235,-0.29153920929128463,-0.27033887882376634,-0.25988568796278305,-0.22580062276168528,-0.12844868497648973,-0.12353403940892015,-0.008759782828319667,0.0017367648012886609,0.00559295313652613,0.014673050158480716,0.021822928535750512,0.018505247978246746,0.031176608140647426,0.040443248801785604,0.038419000414140626,0.03426784404268722,0.020652981093341738,0.023723215223525038,0.021699109442707493,0.024884989611567366,0.02589721225950913,0.035752711967364494,0.0357841640518623,0.031462385544536,0.02504611930150962,0.0027794433572243082,0.02363444967837709,0.0254333518511781,0.026907959391806884,0.017873599179028286,0.019982863301529704,0.015975900875052396,0.006752042633805119,-0.07804687398943076,-0.2349092962914386,-0.2994132381970045,-0.2951413742966297,-0.2695152403885124,-0.25642763737201174,-0.2240867381794773,-0.20901953245803517,-0.08179564916626085,-0.0036254310976767453,0.0053009562918269375,0.006747698714840217,0.00814618312217504,0.01238117133284612
-0.2999175041524809,-0.3,-0.3,-0.29591732955807415,-0.26310887649201903,-0.2259705937966454,-0.17364495612160563,-0.13415519460431616,-0.07821839992565484,-0.002822114114563937,-0.0004765782103521948,-0.0010555831554063765,-0.0026308820196522093,0.006898109867144151,0.013482470589065767,0.01636174211469202,0.010786050636351586,0.007770414264679409,0.008593008980692679,0.013759660850671214,0.01550923873736156,0.01624559306537153,0.018373401101487677,0.01732518642337924,0.011654094791421047,0.0009178153601900527,-0.0007189594643823506,0.0011697892041712412,-0.000269882834004795,0.015346861105281861,0.016215290197340252,0.015117680693023054,0.017126777622889878,0.014251706940244132,0.010702396557827438,-0.0009846665499949822,-0.004338353490322697,-0.1547823599194805,-0.2960058866778873,-0.3,-0.3,-0.3,-0.28667073988151565,-0.25726279761315357,-0.1895436573685331,-0.02705695483095498,0.0006865263338766093,0.004705158209842738,0.005310908057056055,0.004356814189588671
-0.3,-0.3,-0.3,-0.25999465947853906,-0.22563997459549864,-0.1718168942914528,-0.14303492513082589,-0.14153447825027327,-0.00628916099100518,-0.00487256590467317,-0.004638898499543257,-0.004766380668984966,-0.003016470440509502,-0.0025835801194764546,0.0028146889798340647,0.003905072944014985,-0.0019530947166109594,-0.004396810764873975,-0.003370480230351343,0.002032776715414211,0.004352554053682891,0.006574209469473363,0.0037292280822052346,-0.002846490239341224,-0.01399677697853233,-0.11669222283001514,-0.14709459430360378,-0.060616152488147765,-0.02292571508218919,0.001584738868771386,0.005107773131453071,0.006744099313463236,0.011108033139063219,0.008079509564976405,0.008818084727228555,-0.005370870502937518,-0.020658859083197572,-0.08074214922377897,-0.18770981717521337,-0.3,-0.3,-0.2869179998650503,-0.2557665406029716,-0.1896291970889614,-0.18011455960503606,-0.03504581764749561,-0.0027073587041289986,-0.002135620386026513,-0.0005982970070046276,-0.002636851042560295
-0.3,-0.3,-0.3,-0.3,-0.3,-0.2578436768733283,-0.2205930574263755,-0.10054053864859712,-0.09745860200529814,-0.08299694195756778,-0.1099545426910067,-0.10141732088211815,-0.10274123014626865,-0.08016841152634968,-0.07965063229440535,-0.0755695318556462,-0.029024750997795154,-0.010079616973860941,-0.006978273386944889,-0.005806607059453586,-0.006603908519338098,-0.007302550635053779,-0.010946877764569917,-0.08152601732765839,-0.21323370233328842,-0.2993214946697765,-0.28447832197712475,-0.2732355157453088,-0.24173565448690043,-0.16762079130223423,-0.10440465299845494,-0.07161228429214095,0.005957314766835874,0.006195896868013829,0.005870258440482892,0.00481247860225835,-0.013185207131363738,-0.1360449041997101,-0.19977987441063977,-0.19241477688669512,-0.3,-0.3,-0.3,-0.264340472927799,-0.22514034070662733,-0.1564932457567362,-0.04481526012724372,-0.006764244199944834,-0.0035083356947329006,-0.0027252095939075236
-0.3,-0.3,-0.3,-0.3,-0.3,-0.29070476914020543,-0.25919382377656613,-0.2091916661233399,-0.17214922556361953,-0.185296281021936,-0.17509420327506744,-0.17749562339000058,-0.19631424651512694,-0.23695565324526485,-0.24028069224255824,-0.2365539549334983,-0.2064783059148867,-0.1696742593037587,-0.03458786517758338,-0.010236299994152437,-0.010059238432072737,-0.019479287743165118,-0.04254048113941751,-0.05345684185196231,-0.07953706729354267,-0.2346367673253852,-0.3,-0.3,-0.3,-0.2936829329405634,-0.29631070574414586,-0.1524023149243801,-0.052729152867448024,0.0011680436676102502,0.002781375471817853,0.0022834234282549824,-0.0084565073891542,-0.017377327814091403,-0.12691796723878432,-0.2147065114937745,-0.2402452397777307,-0.3,-0.2920741133615238,-0.23219499105452293,-0.16362656441307283,-0.15488160486295005,-0.11633220565864395,-0.09697276998486752,-0.07478441652747728,-0.12008922302970747
-0.3,-0.3,-0.3,-0.3,-0.3,-0.3,-0.3,-0.2936207625606326,-0.26019712786535865,-0.23918806764734307,-0.23686019806016095,-0.23274213463562834,-0.2524466005486774,-0.2721817124468343,-0.2860707266491985,-0.29077475775906997,-0.27624717107181285,-0.2550902146224305,-0.2361863288936433,-0.17392117221894268,-0.15058938323895354,-0.15933590013024426,-0.16493853676959166,-0.18849086169871973,-0.23786616288469367,-0.2835703544345936,-0.3,-0.3,-0.3,-0.3,-0.2730269983026392,-0.17993622418005367,-0.09578274003986394,-0.07351160454856714,-0.08526094079711909,-0.10713078777436598,-0.21937635095162059,-0.2525660527592152,-0.2797512851576647,-0.3,-0.3,-0.3,-0.3,-0.3,-0.2859581647725357,-0.216764818896353,-0.1627633012139773,-0.14225772511637416,-0.14150675145965758,-0.16688061706023227
-0.3,-0.3,-0.3,-0.3,-0.3,-0.3,-0.3,-0.3,-0.3,-0.2955060097163347,-0.2922686063434157,-0.3,-0.3,-0.3,-0.3,-0.3,-0.29964329076729784,-0.29096152857268254,-0.28367002473029784,-0.2738603836505918,-0.26197239259124366,-0.25208063711164613,-0.264929450871312,-0.2889205893627418,-0.3,-0.3,-0.3,-0.3,-0.3,-0.3,-0.3,-0.29314588908850453,-0.25753287234517697,-0.2327764119818787,-0.23622464130741627,-0.25313500252009713,-0.29044101828097296,-0.3,-0.3,-0.3,-0.3,-0.3,-0.3,-0.3,-0.3,-0.29190041597391614,-0.24993519974395978,-0.21645035411114597,-0.20101925041890348,-0.21624154786887254
-0.3,-0.3,-0.3,-0.3,-0.3,-0.3,-0.3,-0.3,-0.3,-0.3,-0.3,-0.3,-0.3,-0.3,-0.3,-0.3,-0.3,-0.3,-0.3,-0.29706282077556473,-0.29633033448458757,-0.3,-0.3,-0.3,-0.3,-0.3,-0.3,-0.3,-0.3,-0.3,-0.3,-0.3,-0.3,-0.3,-0.3,-0.3,-0.3,-0.3,-0.3,-0.3,-0.3,-0.3,-0.3,-0.3,-0.3,-0.3,-0.3,-0.2920399548198196,-0.252881995254251,-0.24920106037208517
