0.17990681803996827,0.17474614836080843,0.174196252365527,0.16708635584775242,0.16684164878826646,0.1721770733714512,0.16459507775246307,0.16042622678556653,0.16073887698012915,0.1588420367534353,0.1734439875374555,0.15971613827700643,0.16030785117756488,0.16112472169968553,0.16288136884841928,0.16355383067368662,0.16360102675240776,0.1639072891640042,0.1585022616737891,0.15909765484515448,0.15829042234045337,0.1589963241047497,0.15857554461025813,0.15914023419486062,0.1698268839467815,0.16850609096525454,0.16963761030445945,0.16726522670653227,0.16923403808855234,0.16356117602551126,0.16178215675383747,0.16223696605574583,0.16231676890135532,0.1655221061493934,0.19772368367990753,0.15819486623558202,0.15328213712438166,0.1541709896620155,0.15793562825482338,0.1848406703556989,0.1600450279047689,0.1596549037546141,0.19218042619868786,0.16850297987696605,0.16919110113961858,0.16796954910650938,0.168327727913785,0.16880294998563536,0.1757045343460037,0.17545503066792636
0.1868477602751891,0.18009328422656104,0.17518169587262167,0.1742848374079502,0.1742794781469815,0.17303692972851875,0.17270032919929817,0.16672444822401306,0.16444285538479458,0.17099554473893527,0.17081755892212913,0.1705639167106718,0.16642814790145316,0.16601540380517157,0.1805484866451923,0.16795745272030588,0.1682053173485668,0.16526949289878415,0.1664834334775535,0.17752287347532703,0.16966436540753613,0.16382715485893132,0.1627440665312776,0.17812736216541877,0.17170263795270962,0.22260642662035693,0.17731630155660272,0.1755948987787095,0.16985090468035546,0.16946725410833616,0.1738094693580681,0.1673090664153918,0.17114458774039043,0.1750271442845711,0.17851082786997752,0.19848225859126617,0.15853274103280493,0.15841414187015546,0.16796937240958704,0.1641529840158511,0.16274160183066702,0.17488453334569623,0.17407734583857984,0.17325221321213302,0.1714339994382414,0.17115665090321808,0.17071240582644398,0.17455280782632504,0.18091623404562882,0.17846840452087387
0.19226202098680417,0.18286850301785876,0.1803580428183533,0.1766015269087524,0.17588417120776817,0.17678921579659335,0.1788369186107157,0.2260090353448247,0.17116850522561022,0.1721124321688854,0.17142286923459854,0.17137579347827195,0.1708209532632682,0.1759552879277182,0.177027655637772,0.17729549762602245,0.17261729060296566,0.17533475736429976,0.17803149980193125,0.17884939032362682,0.17805429486522073,0.17459247719679274,0.17701747271481022,0.18113086691925653,0.18129012946903714,0.20818486862989768,0.18390867172282135,0.18187461930065285,0.18458672444404753,0.17639875344837105,0.17633910729799865,0.20605442913703984,0.17753995128977193,0.18147799260697714,0.18439928014637594,0.18394202179180455,0.16002981764235036,0.17635875476033044,0.17417280542291172,0.16682038586912395,0.1765677332945672,0.18890932304214003,0.175720416507274,0.17375756868441186,0.17286509841507863,0.17194971518221394,0.1725916336411047,0.18113078091150114,0.18511558178634938,0.18308032394982068
0.19384642030532992,0.18918387239277296,0.1838499862863802,0.18355811327076435,0.18241656296077455,0.1821549134045889,0.18482127647612234,0.19566290644615417,0.1786568715585082,0.17613025300553123,0.17452479778167368,0.1762567277713187,0.1794064791928238,0.24692111714535386,0.17779033902021155,0.17847559559629717,0.18083495536069671,0.186789735774442,0.18227633371632398,0.1803784119885664,0.2274504474601567,0.18013785706075972,0.20800705411957346,0.1814106359260915,0.18691097753091218,0.18862034631772315,0.1879368408841548,0.18606685016681276,0.18917602216804982,0.18390792299227626,0.186450019750051,0.18589135421258118,0.1862917951657805,0.192208882306066,0.1853673205011656,0.1882307095702626,0.19331727934692924,0.1900151717608707,0.17663269201511245,0.17806618845014963,0.19532527978274755,0.1867985988740737,0.18578264873632044,0.1774969026702218,0.17351215755370705,0.17367472595463884,0.17913609500546598,0.18542070453717263,0.18654661753993948,0.1866509341720459
0.1960548197506164,0.1948092569019361,0.19050272958213946,0.18966170099207885,0.19006479096712245,0.18965630825136948,0.1891493717425013,0.18938716376369574,0.18935912719905815,0.18198832128897843,0.18127084201624588,0.18765188896962348,0.18363251400018044,0.2130411899618526,0.20878491824997136,0.18503173106713305,0.1872376290760389,0.18724080189476602,0.18739667125227283,0.187653297452417,0.19190709467251307,0.18515902751460855,0.18168236616554007,0.22341846714932967,0.1981823526852848,0.19104510901038174,0.21958920585166825,0.19067004330717716,0.22547797482568824,0.19826771643708596,0.1883727788167931,0.1968893682691083,0.18806641450948375,0.18906017787364618,0.19163324372386858,0.20375757495504446,0.21646088217248735,0.19387757829477495,0.2704190752687184,0.1980226924076848,0.1957849176135749,0.19776144698190437,0.1868138342695869,0.20180557527277904,0.17932453006559107,0.17289818450840533,0.1808346221982491,0.18661424493920895,0.1939000787959687,0.1889834887303739
0.19895979196770025,0.1931270849945306,0.19781034674417394,0.19401601491299983,0.1941564455053366,0.19217490850288366,0.19395751762003233,0.19275570973964462,0.18945708793563046,0.1893109225452512,0.18661293695367576,0.1871951438055096,0.18949973386296404,0.18976793414684606,0.1924169103565253,0.1924100680160849,0.1875587022572141,0.22792153541016855,0.19089768127677192,0.19498189007128833,0.19968472897280728,0.2270565393633793,0.20358719060407798,0.19165001311928667,0.2115370855433362,0.19507124223858624,0.1948849101402033,0.1933517227022963,0.19995940723457326,0.20071222762368435,0.2567470689337654,0.19637629031301898,0.1915759385246953,0.19212364025370887,0.1924740935399524,0.19650250458378937,0.21067627614401593,0.2107021155651683,0.22317894163792676,0.20026366635706008,0.1983485842984012,0.19616855230356647,0.19189657383586678,0.190374367553184,0.16035331918737883,0.14516886427340714,0.18724767332446215,0.1977185348029581,0.1972784128760913,0.19473289619440612
0.2029806440570273,0.20587717371725767,0.19674878668481402,0.19899642625935127,0.19863474592097918,0.21581248193395958,0.20100339350427956,0.19394460195733765,0.20792175842294067,0.19078351815354105,0.2619467843689194,0.1935518255844519,0.1903204001903049,0.19316147540575776,0.19781030401296318,0.19456876891777128,0.19702027086208326,0.19719227331065253,0.21259240222353115,0.19634246145235376,0.19636599128032714,0.20545206661655013,0.19024628213959022,0.20403727658468082,0.20347775783705685,0.19604837220315996,0.19693281121654546,0.22351438008900235,0.21960912640894129,0.20284144021884734,0.21406027262528574,0.20876288106750504,0.1997305350180639,0.19571716706472342,0.20016045934595608,0.23467270248432254,0.21076696569084852,0.25748052367329616,0.2242718269787507,0.21036281090643005,0.1984237964257475,0.1983886798055581,0.19733902367582093,0.1803126356401055,0.19080541051503885,0.230484544292328,0.2095222463673429,0.20103038450007144,0.19924822227326697,0.19791206793333108
0.2067245317026672,0.20839405186984056,0.20958769345681202,0.20281007019011468,0.20153858148275036,0.20368402955908813,0.2104476764491656,0.2144106851562416,0.19167913384562596,0.19968845085206385,0.24025441555840632,0.2012189631897364,0.20098129118960503,0.19803636178673947,0.20025731319527157,0.19886664262884593,0.20714049073467414,0.2051586960992348,0.19510098785424357,0.19591558547310267,0.20584614019175485,0.21777903854674915,0.22258239805084484,0.1983011060190952,0.2003964507042836,0.20360050226016183,0.20367048571346005,0.19802084513545506,0.19794515024846132,0.20429819831092963,0.20412304347851,0.20436672536374764,0.2030988229440239,0.2454362169217155,0.2050883359181714,0.2267723619915461,0.2212933783011531,0.21078796055310584,0.21435491175194915,0.20425376821005434,0.21090409363067764,0.20311360489369612,0.20049640733324817,0.20587163046320744,0.23605394657609044,0.22673743106490188,0.2069023843712946,0.19900539700969688,0.20242286695537315,0.1999075531559639
0.20894080528692724,0.21092281323712853,0.2103820442219473,0.23733481305562187,0.19279991225151233,0.20653768264024,0.20699857787111572,0.20709156103545942,0.19868298587222377,0.21053066396365674,0.22983008173473465,0.23002194970553885,0.2050272474628971,0.20434378233675315,0.20170659488757495,0.21634567746320968,0.24759614832838409,0.21523238940818246,0.2062287992088448,0.18310165039724896,0.22833665845298398,0.21882341827798432,0.21519686468156402,0.20662452436176734,0.20691536118136253,0.2524204295887572,0.22558273613878518,0.20273002768055634,0.20614726600623615,0.2105262674620831,0.2579581923366039,0.2068674020322652,0.22501305678514139,0.2084932330183638,0.2441184684532077,0.20790055729384532,0.20359580328883162,0.1963256158841803,0.18999436860178376,0.23607782037472394,0.2143316665601665,0.23665761652185208,0.20375430049235313,0.21447690404958628,0.20408691945677984,0.20217102876879278,0.2004763949795239,0.20311752296286772,0.20213118099704055,0.20199691714585577
0.21232242166385043,0.21471732113277217,0.2227828194293068,0.21280328230952417,0.2110009066622161,0.21105803125052272,0.21137236753374194,0.20930086210018325,0.21184616602490705,0.2033654300148111,0.2269208367882813,0.21729045237467107,0.1970453687544504,0.22149486080316982,0.20603994368448494,0.2038872230094822,0.22910294448167057,0.21954148839320287,0.22190164570897497,0.20842337448346884,0.19232212999514933,0.20050270834110342,0.2010451138863774,0.23145788164219153,0.21991656204016144,0.21285639981994664,0.2100811589557623,0.218950641730298,0.23129425717264582,0.20844489426938612,0.23162912592415763,0.21044863517211182,0.20478818970441623,0.210655427679218,0.2100748816478414,0.23458454927624653,0.22408953444149565,0.20769296641215979,0.20863903747809368,0.22614478789974088,0.2173839789515901,0.21436626359100486,0.20633190433481524,0.24830609625448802,0.22416652811562343,0.21090913355500734,0.2059362065174195,0.20510003465296345,0.20340285675750527,0.20277705616400138
0.21445788040954947,0.21723014304770982,0.22027519699246048,0.21134299168198242,0.2189831707077027,0.21690499819116385,0.21429030128885795,0.2131853502698377,0.22699317424138984,0.21352844723505765,0.18090215773956467,0.1595278506914616,0.20918837175294566,0.2087518009905457,0.21759943533025727,0.20878869476237447,0.20784791929233473,0.218482145446675,0.20986803885200456,0.21338551276710396,0.24364031466148314,0.21980001481011038,0.22227641045424423,0.19913808826532678,0.2014406036709811,0.20735541677426694,0.18688178138534087,0.23266369752259008,0.20596588838929242,0.20644464250799874,0.221205111292879,0.21513887004456306,0.22176525484283705,0.2126353270783262,0.23407212518266707,0.21930334125679565,0.2157694066828159,0.25475435012834935,0.20931199565336536,0.21152831525634297,0.19927228071283687,0.19447706179688873,0.21866910600468484,0.21089652337503864,0.2171036888798733,0.23235016620826926,0.21636429277572683,0.20783817794534004,0.2055995932810829,0.20417872600109088
0.2129759632518063,0.22060259226689272,0.22202137761564458,0.22290361005686687,0.2181779014319296,0.2197753748080912,0.2151281105658705,0.21515098872190222,0.2148075167794605,0.21411685020809504,0.21525157067719286,0.2637646216546123,0.23460575135242331,0.24055080314573277,0.21819201827827966,0.23021986413756776,0.21373880919581975,0.21293504833804366,0.21226907900999636,0.22649978552459704,0.2214473973673879,0.21733236159644556,0.2223975794589782,0.2253090338985663,0.2375947264019922,0.20482716437462628,0.21994305656984442,0.21238528163328693,0.22189634424926968,0.2073687974290615,0.23232685933042632,0.2140484208864089,0.21556745738399802,0.2133586261010786,0.22389241555383393,0.21112257800010942,0.2087800877250462,0.2281468051421313,0.21931641347277755,0.2249407186299484,0.22665916976602166,0.17976800018300373,0.21603534703083083,0.21063094872047258,0.21044356368288647,0.2107212354753632,0.21257644677125065,0.21290492349001716,0.2068133671973534,0.2062481624728303
0.2246189806906676,0.2138641322351478,0.2156740625616388,0.21842359851836235,0.23268398197022644,0.2207702679531463,0.24065337790855926,0.21977662852357524,0.21640886165492806,0.23474969334381063,0.20835678073811043,0.21482040727219356,0.22927868811273525,0.22713185760935362,0.21842866206488068,0.2397871671534313,0.2148972891977679,0.24478827259348454,0.21154616611753652,0.20822349109951505,0.2139778378187189,0.19995940888202296,0.19022533084078447,0.18756629148960224,0.2173193057556783,0.18832693018801888,0.21666176433797818,0.20543849866809807,0.20639046610361064,0.21946988915212348,0.21557507018802782,0.21006116919851803,0.20403701574661562,0.2079032002542465,0.21923033549928564,0.2091219265074068,0.21122750961672673,0.21620946344278216,0.2167978993665185,0.21888773967117744,0.1694160103968288,0.21005576686945215,0.21213656580401774,0.2252170871756568,0.2131501610775036,0.20975905036287482,0.20969962498404812,0.20797745841634419,0.20787324395841858,0.21049963825901363
0.21579144628897434,0.21921180162476692,0.21815336938468916,0.21837896853779534,0.22669823879731438,0.22322789130544807,0.22238917981792683,0.21499104231516886,0.2157523338842393,0.215669136502239,0.21373454928436583,0.2308738426224068,0.2025391609218864,0.23848653606206152,0.22446475498022495,0.2174591305886865,0.21823528482303808,0.25328124123734197,0.21296325864323948,0.22449877687666406,0.23652881363532474,0.21381748168083486,0.22232819539422558,0.19028182701291924,0.23314682635904577,0.1991385135509547,0.21233862229705894,0.21024523665106007,0.2038399106838421,0.2181516160341012,0.21537054061902322,0.22848901004731229,0.21208701646967107,0.20679728191251887,0.20487945151554518,0.19718496018745743,0.19088413556948225,0.19207789172292053,0.21567993344045455,0.2086007604878531,0.23860289567661563,0.1970978340305792,0.19072661242616612,0.21334941109718053,0.21838081770692427,0.21410478183799192,0.21191835711521798,0.21043607108314977,0.20875013321970834,0.2080988714866478
0.21581876573124867,0.21982865517274436,0.2189214113441791,0.21959497830388447,0.2235158948379251,0.23895240781796942,0.24191563862150356,0.21841060691545858,0.21697556688631317,0.2270395214380756,0.22331289631621473,0.2268098802220064,0.2141920961223046,0.22991258684428015,0.2312534168595766,0.24201334909130837,0.22041877415219202,0.21621235068463734,0.23404776300246105,0.2217024648999831,0.20395037194075893,0.22064348448507165,0.20768460108871234,0.22011357941215595,0.20034888773297285,0.22310515303138845,0.22684931060721422,0.18422938783111867,0.20728584396067595,0.21562126586063501,0.21561585692407073,0.2293201177255762,0.2148335852544161,0.21296619416671225,0.20713522072376125,0.21389065173296212,0.18981674631521434,0.21666741459383781,0.22496966101330898,0.22373740743402581,0.19961826125748178,0.22313556916591262,0.20800087179942323,0.21525767989816488,0.21517281553749668,0.21549491600971848,0.21461780018872123,0.21272193612719614,0.2108333864855424,0.2092589463036005
0.2199390423416062,0.22083413815828112,0.22413340095240572,0.22480628044307932,0.22461731997696066,0.23044541247071387,0.2269436091148356,0.22214778233952232,0.223249028486644,0.2158774767689394,0.20376045984157948,0.2468936077449484,0.22374657918669713,0.23466814464881836,0.22248898481953036,0.22862783807716236,0.2523718412797245,0.22311616913478455,0.21849621203957417,0.22743694586572394,0.21669673670796896,0.19869343699744402,0.20450115775849906,0.17013425826264608,0.20291736771666122,0.21047126650977593,0.1909738607998619,0.21351824147562007,0.2092189196002539,0.20812886210319778,0.2066242592169871,0.2102146322238832,0.21039136470148956,0.20278474874086921,0.2054721109518266,0.2166079803521842,0.21991722014200507,0.22366535470589335,0.23715106115283466,0.20814315231578248,0.23516419935256702,0.21340230712955688,0.20220676959740805,0.21728357292507744,0.22980701995421088,0.2180730261388707,0.21832257549389322,0.2157565164561784,0.2134832847983827,0.2113919819466758
0.2210998535478516,0.22479397628219633,0.23016782670910593,0.22537688588226706,0.2259723155625711,0.2247007931230689,0.20676217847023903,0.20819685084645875,0.2093989021955659,0.21651522549686078,0.22610740604450422,0.23225061321015597,0.2446763977051074,0.23784788760859485,0.21658039319001254,0.2155667685596767,0.22363457721634694,0.22389707830667913,0.22428502932328107,0.23714738360340357,0.21928272055489087,0.21096456959585305,0.21070094387722466,0.23951550386359335,0.1992289205278918,0.18760727832183272,0.18873547622649492,0.21176553266584164,0.20983966198711798,0.2178272107919039,0.214928959643752,0.21071259986502827,0.23213436988467503,0.2163247499933523,0.20857839101834963,0.20707364526244929,0.20257615332573295,0.20504332917962953,0.21796107661763098,0.20636429538983736,0.20700311023331877,0.19115579399036667,0.20434309047333304,0.21240841235898883,0.2133393312469513,0.21117432516114984,0.21262024857745188,0.21241192266420894,0.2129901888579274,0.21280439828909153
0.21478302233198654,0.21437633806741893,0.21714095354229096,0.2115830709233656,0.20955878174934744,0.20836903163101728,0.23780206448778957,0.22753344708997622,0.219483276569876,0.2292835926082166,0.2309550239006573,0.23208698666429997,0.24681051555894484,0.24462205791578076,0.2126614601337251,0.2439069443539118,0.21433130238153522,0.2222565372300415,0.2217752849034534,0.21278505359374592,0.21028858888450774,0.2113301139699216,0.22178406005705342,0.21577710841156358,0.19640194295520969,0.15787451304295627,0.1944148843433496,0.198487312901334,0.2014729282669546,0.2024548614095121,0.1997217176423371,0.20557888368474087,0.2055598532871973,0.2089739829481081,0.2110274051775028,0.2255392982975612,0.19789259556056354,0.18596599021563878,0.20997842772929723,0.20649458081556943,0.21740705621511267,0.21080611603158783,0.1896482061973326,0.19345816728855927,0.19793619307530003,0.2032548812130853,0.20022293156207854,0.20673566055037992,0.2061809150079731,0.20605841518394996
0.21517744528485913,0.2148183596951162,0.2147204438351552,0.22452591726544271,0.20923186905361574,0.2168413794551512,0.21036987712217073,0.21047286677354643,0.2127683303285266,0.2106416650949348,0.22467113464126057,0.22653088324553505,0.22611384546746308,0.22574657143021584,0.23657519840887803,0.19625971391137356,0.22444279857573135,0.23100799622913523,0.22823671560046602,0.22326325977583922,0.21165031525944203,0.22742374953802685,0.17907900915248356,0.19259229253869933,0.23155421839231358,0.21204859272961515,0.1568077611285683,0.17518934234925004,0.17177028965445748,0.16876667822318844,0.17557243623111227,0.19281909720699136,0.18152640186439675,0.17274386948261722,0.19767172964606855,0.1993548661842183,0.22061475562384744,0.21647424864245846,0.18629070771325149,0.19330867978473412,0.19328632779488017,0.1967014601283447,0.19779306654482404,0.19519724883236803,0.1825414649276953,0.18160020443203115,0.1901629476211923,0.20017085194819798,0.1961190170236443,0.1954097111964796
0.21566759474028377,0.21829618851711582,0.21509360312431078,0.222124974519853,0.21094623266009546,0.22970094926238174,0.2261298745644771,0.21796933286504608,0.22017757163312013,0.2235549322031791,0.22705751876406122,0.22706087659923693,0.22841895716731872,0.22635028778653557,0.23323789865638409,0.23565148155544796,0.22294376930449764,0.2224443697805803,0.21112250331888693,0.21567334190087167,0.21842514561007537,0.21386602198887752,0.21530272891563856,0.15950273221580075,0.19742487063458933,0.21114762203277204,0.19152019741955967,0.2039735669644206,0.17594744175022894,0.21440889674991453,0.1688880935951909,0.1692894952989087,0.17118939840063682,0.2048590322428765,0.19061393017179762,0.19526691635339158,0.21567890746517712,0.20964273724162752,0.18229949199264575,0.17685600659624978,0.201454145888951,0.1828725341122433,0.18632506500116378,0.18517452939270357,0.19172505541294227,0.20421888797913276,0.19260341730673955,0.19057275713352728,0.19041698131300158,0.1991411306895003
0.2090609783296912,0.20875995724458335,0.1989231837828666,0.19806470364377343,0.1980814869250304,0.21632931792403964,0.23057053578529066,0.22845289104995375,0.22816635531099363,0.224381052565039,0.2120936364589931,0.22070440682480263,0.22801939331735224,0.23769390817708508,0.22715718851906952,0.22115488282009432,0.2220148077812299,0.21747086406484598,0.1974632013552816,0.19851984280108642,0.20112910417305088,0.20603739146742525,0.20924418588480595,0.19234147747160077,0.1911986335918111,0.198197539421228,0.17803638592062307,0.186725606772801,0.18152581555187672,0.19092249704614225,0.19467992073899035,0.16261157320681818,0.1924659695800995,0.18474963659407995,0.1963566469666649,0.20234928034957841,0.20037203741011042,0.20193286550913273,0.18532770717970676,0.23986928220524925,0.21959422479772556,0.1815722664891333,0.19234498024013558,0.24396121346416236,0.18829773333038186,0.20086964677595034,0.19939563999004645,0.19126798606709652,0.20026304645665488,0.1995628837456041
0.20984173556735355,0.20904658116577793,0.20920657289373001,0.19947224161190275,0.21934427963397693,0.21569048088226409,0.21475973474978588,0.2246634812827675,0.22358254929646953,0.22295934278530977,0.19954167410247298,0.22065707698835865,0.22327425317290023,0.22183028602158408,0.20533759228519627,0.20462785070064266,0.1986313914093628,0.1913253940047602,0.1712690064896498,0.16564765947619747,0.18641823956803194,0.1870972058421069,0.19000937968582515,0.20097639090694627,0.18453871229085528,0.2067191434046951,0.17697088163524455,0.19203258207933757,0.17004914195563064,0.17179370395254928,0.1893994667984529,0.17625625943270895,0.1869636421038821,0.21105057884718917,0.1980622408321016,0.19500652317444275,0.19084707360305786,0.19178267831071094,0.18295230643488378,0.2780729548632707,0.1862608865378413,0.19623237730415022,0.1971195530572169,0.21063439828347674,0.19368562159862562,0.19836813453303606,0.19329267178789056,0.19416921606001683,0.19527636065187992,0.19232923496947987
0.20957331031403614,0.21105021773248034,0.21494527736415533,0.2106438877068776,0.20126110241796832,0.2014881519989011,0.22749034348278252,0.22723948019441845,0.22789436787128753,0.22591518417568096,0.22570778669835187,0.23078080273496057,0.21383133341244862,0.20993578187066034,0.17832955757612037,0.17778913529146234,0.1757581297347501,0.16626252129841507,0.16760991114050086,0.20060878342890648,0.20041064808584758,0.18733900016755492,0.2014854583312713,0.18279244271224593,0.17614792151069997,0.1688313878853782,0.20913304575576797,0.19359848069575838,0.171572850039623,0.19312082554887053,0.19711757580302577,0.20530464956268077,0.18374129540910647,0.19494038119067,0.20569046635381247,0.19693611794019447,0.19489928187694627,0.20061126120542738,0.19462412735176565,0.17774638073542368,0.19985233320123066,0.2008184771615605,0.19728931732465496,0.19765635175073884,0.1967954613867794,0.1920507623352686,0.19206782253988497,0.1915340235759782,0.18576537399852902,0.19003278464819295
0.20313730319550558,0.203886733450789,0.2039936479162712,0.20433618597882441,0.20387273607394654,0.2193027430640169,0.22455855423533153,0.22080008007112834,0.21838495504163896,0.21690077369467994,0.2199230148880517,0.219328368081765,0.22169423517691,0.21486869160393837,0.21016317094519732,0.17829530978084235,0.21352850855042405,0.17682769831920458,0.16567148877016696,0.186931702390861,0.19355649737577135,0.18781179514799914,0.19634744590547493,0.17975754061761898,0.19842646178071327,0.19277229053457512,0.15469948442528428,0.17121590982208698,0.19798116425570342,0.17694181682470467,0.17558131884898817,0.17900286315029781,0.18512986301234644,0.1844367045999062,0.19311475159218205,0.19378173495219694,0.20649308326273794,0.19341997239603922,0.18994865506463257,0.20345878311586413,0.21470266898732446,0.2073841090365411,0.20873324372425556,0.19963524268796165,0.19794665097925215,0.1980167412512446,0.1927314023460271,0.19432469937367597,0.19431419316592038,0.18575767703713825
0.19293858518493046,0.18987458825896317,0.18973504493056662,0.1972602419460612,0.19659436092011875,0.198452720113059,0.20579463060394373,0.20047774209564323,0.1981911718163657,0.1951397836857981,0.20797937242786163,0.20508056478384568,0.19925093280086573,0.1925480536013535,0.18610856708006746,0.1916943723398751,0.1804973098567856,0.18014804858191658,0.1826414615326762,0.16666595542021662,0.16073088245493095,0.17669078468722696,0.20174893940033092,0.1824719579933444,0.18082046013126496,0.18793774644603056,0.17804591085092925,0.16324816616402296,0.14888757710627543,0.1475460494106069,0.139747605900749,0.14249593337720645,0.13818578764903017,0.15199562436385927,0.16809682949949944,0.16148374524983677,0.16140648386294856,0.1834037170053589,0.18759325432677268,0.18739938794342942,0.18132745698426614,0.19445224209627263,0.18589936095413262,0.1870724008344595,0.1862670182059248,0.18664494557891045,0.18483721997265348,0.1904733140727588,0.1927651813975589,0.18599504586637555
0.17975322490507545,0.15651424456387045,0.16904501437591563,0.16925479605208243,0.15769803241723082,0.15311894959442343,0.15539855607801809,0.16259069630612738,0.1535066729645637,0.15489415137059634,0.18332765846486293,0.18340922177892116,0.15537932249499598,0.1552117674199408,0.15523870262330963,0.1469993287628422,0.16403236742875363,0.1585046873019393,0.16226082304399536,0.15115921201189403,0.1771858462642633,0.1999013870672434,0.18154449475716405,0.18266009793555987,0.20342689134956066,0.1791745329685615,0.1809851855658572,0.18306436420867228,0.13057590556292997,0.18357311642144833,0.16718995693037114,0.1432616713593682,0.19266987265226893,0.14148683461369424,0.1845989960397724,0.13852383922378583,0.20099177472951996,0.19872387650054438,0.18939633162776703,0.21713731548822424,0.1884224691816037,0.1773716947407811,0.16356769884005531,0.1574317180188566,0.15690851898604286,0.1551474969705566,0.15599067154380394,0.17992283179940205,0.15957109345477624,0.18174541237400726
0.18453285234735295,0.17864566855038647,0.15709973324235862,0.15857983169560108,0.19131594763337523,0.192669714646193,0.1452686359342268,0.1914970833496724,0.14779776401746694,0.20335960927822733,0.18280381252000594,0.2009266518303421,0.19449401365163463,0.15521478932437646,0.19807371679880376,0.19894370454525379,0.1344627422856247,0.13840798397934057,0.17762813981726217,0.14798539259308535,0.15815668757966575,0.1939968676399914,0.18466226903690328,0.1829727887697919,0.18370816719365646,0.18150684365159125,0.1828253709844873,0.19462498500247438,0.18338147012305756,0.15514472306609142,0.1513321516017262,0.15111394472871006,0.16825566049702437,0.16465173809431488,0.14687063915082976,0.1838548518062239,0.18684156900837717,0.19418203692343042,0.2057071437399266,0.2064467929697355,0.1775850400081268,0.17814568782194437,0.1867580589488272,0.1850850641458798,0.13100873650254455,0.17653482660326106,0.1785353626174333,0.15610321867270466,0.18135930861464733,0.18137933557437555
0.1795681520446302,0.18446987094949668,0.16030868470738932,0.16115959545493155,0.17324973686963036,0.16442191786075547,0.19533895753296285,0.17554018340551292,0.1846795702093132,0.1907575448541298,0.18921894596294664,0.18360049329154055,0.15830070512507072,0.1581733061052798,0.1740090744895011,0.17919452284471296,0.16249818873985597,0.14000515833985788,0.16150885098347884,0.13558951879476805,0.1298496241524863,0.19611259672883896,0.18247015003963898,0.18454662977689623,0.20098012923215014,0.18694474352101684,0.18443218629348407,0.18093473051144776,0.15790655463905298,0.15894007128646034,0.15264768386986702,0.1532170277860585,0.15291223485399205,0.15522393151175304,0.17653627961481555,0.19033729922567147,0.1854781013326337,0.18681436966997014,0.18536978090957584,0.19089691007640733,0.15509760097555264,0.14902545588229524,0.16857798225306456,0.12923857002735256,0.14702440212572002,0.17562292280742162,0.18477414193394545,0.15697447879057447,0.17203077309616974,0.1751934522588214
0.1940331104148165,0.17681639803680282,0.17542027614635974,0.16403800124732124,0.16177895449272447,0.17966984369860353,0.18310602137216922,0.1860526789152822,0.19197746069429872,0.19579259445721361,0.1963962114589148,0.18944038179383313,0.18150168372764694,0.1595499448271469,0.1959199150886283,0.1601680236035026,0.16016979402910214,0.18234410927162034,0.14465793028178245,0.12041208462555697,0.16405615121100678,0.19321910707567944,0.18995326876933227,0.17996766517470858,0.18052010798577744,0.17921972154012467,0.1940557864310814,0.18966644476856548,0.17169183686385436,0.15004004401538848,0.15726814928797841,0.1653206404241655,0.15274277631430222,0.15380629256249395,0.15338717684884084,0.1712062755467567,0.17359099986177157,0.1728100539694578,0.1801591882588326,0.18866062211718526,0.1742962879097145,0.12603485640856077,0.19139534984893017,0.12522032581378903,0.18618342490939319,0.1757388897393635,0.18267118197079804,0.1351021646662181,0.13510432734458971,0.16384805228453198
0.18793680679266192,0.17982511941199897,0.1767938828996146,0.20121129195079995,0.16882779079477905,0.16155552734479964,0.19237375276114785,0.18857009245713388,0.18857260027091755,0.17878389145682919,0.18959329455582732,0.196988052042986,0.1918015541903779,0.18391039165495202,0.1586968884521644,0.16148211176586172,0.1793690783289572,0.16366488039902943,0.14942900859532154,0.1636001159336328,0.18541237403643793,0.19149953570965011,0.1924276091885542,0.19005315567784822,0.17944646338527706,0.18765512676748705,0.18510052683403613,0.17705191115308855,0.20570878498715003,0.17511339049749242,0.15753233893632423,0.1736467292380326,0.17509834069414792,0.1570745745761189,0.18063678941111955,0.18119084395616145,0.17449986670717602,0.19574237516489687,0.18085874933713256,0.18099537292602194,0.174523940534416,0.1760275614395041,0.13308902627836605,0.1786228437580506,0.17314051947385767,0.1777503561842549,0.18148756187028547,0.17756339155117273,0.1351498630279398,0.14895672926808803
0.18782945648627006,0.19456421072516888,0.17793034696972854,0.18148153509449388,0.16020554033111817,0.14718011372418538,0.19706830842814632,0.18936974392114453,0.1892314353014042,0.1962536290180851,0.17925573674767192,0.17926229506324687,0.18757222351395406,0.17831273162553612,0.18133262065392397,0.16003851455845755,0.17277498718757503,0.18944459233750435,0.16295398819838372,0.1370375003647357,0.16652947083853473,0.17645459056141832,0.17325505026923385,0.17800831886396778,0.17853030529171043,0.17426770344422562,0.16033182083799874,0.15429978232148303,0.12034377927072065,0.12492966409265464,0.1552779127596584,0.15342335843271673,0.1620879264819836,0.15940840526946942,0.16829948787983878,0.17759721613872106,0.1763658915465208,0.17688464835886564,0.16541666218506337,0.16429551540831783,0.15830712976745395,0.15366957784383123,0.14958516783174317,0.1416722170685828,0.15630588949442625,0.1561927354734067,0.15027375391367068,0.13662888396312844,0.16441222490197258,0.14858909207302337
0.1799227985242144,0.1713486098722217,0.1584862569536675,0.1531785401807295,0.14434895022475874,0.1832403091138966,0.19178610122298803,0.18952116352285914,0.19030285358918925,0.19891241648224336,0.18274217653538033,0.17957575144773363,0.18286326266725036,0.172088092755397,0.16302649881813383,0.16550597881481688,0.1706632703762731,0.1615256945335879,0.15294673242414117,0.12437340016206401,0.13009876568167208,0.14901342537035395,0.14869165451980504,0.14717543530814362,0.13606495715746444,0.1294444428156857,0.11731378980379713,0.08347063459153001,0.0721030338064797,0.15949510149054752,0.16185501144100242,0.16023986032075968,0.15953822119408234,0.16909047770027677,0.1708700083088139,0.1687095895565162,0.16962630271662846,0.1712489024330892,0.16426969224831575,0.16943583868168233,0.16499605725367283,0.15462092421068127,0.15551438205564225,0.16989396753522734,0.1702707624710873,0.11650763855822413,0.11593442775003533,0.113809763472494,0.14578326108837683,0.1457796917958559
0.1740690219034089,0.09534591359826275,0.10528290098140124,0.12724126652419326,0.14099116360499742,0.16386691810301127,0.16756863869791253,0.1771448584258164,0.1753091849373806,0.16896376941629315,0.16290787144146007,0.1605481520571556,0.150369540489252,0.1456720092031777,0.14454168059337655,0.14306943255957422,0.13994445190721957,0.13897498944833456,0.1398446040692257,0.11866880469376037,0.1019753881226217,0.11109487518581246,0.11613600878622438,0.11099729920066789,0.09782337890805835,0.0789824269605595,0.052542377157773615,0.06596528714695027,0.14339411749202755,0.12640253267784896,0.16080552721144686,0.15596631771503378,0.1526232136237156,0.15476131867020618,0.15318691482441674,0.14167646787900778,0.15659137108027238,0.15296492152146268,0.15521322565560666,0.15773785153748332,0.15921514916440677,0.16183136534897732,0.1557669336191474,0.1546333394057238,0.14857583374077407,0.1356940939403223,0.11264930295168274,0.11988629380793683,0.1355529739154518,0.13283854006506482
0.16407328043895095,0.16585082641075985,0.06344189011684326,0.08416035093090855,0.10342518254864184,0.09494233617270369,0.13555270406511696,0.14598557731416198,0.14547130516822931,0.1378562813023294,0.12180657033620224,0.08030541468412881,0.09480564405767809,0.09451439144820042,0.09786032434276529,0.10007550406834775,0.09825819457445462,0.1012324965504502,0.11111453052138179,0.10800489208610864,0.10791232886966062,0.10575674302800649,0.07788227597109179,0.06850197000276934,0.05457823965298965,0.017628767867232855,0.04715979234850838,0.12449875772079125,0.1008065222670317,0.14680138488727537,0.14735471524673505,0.1419037261736114,0.1270921445649296,0.10720535088288598,0.1447665531519967,0.05920866149261843,0.10115823693869594,0.11026363271928215,0.11838580649959182,0.13108426312328736,0.13797256620585666,0.13818829823462211,0.13612814223620057,0.13036438210360807,0.1210571429974406,0.11467923104758597,0.11418270328180259,0.12056087061194659,0.1218653166015461,0.11909357642247512
0.1528650569499501,0.1551436896425708,0.1516346116125302,0.06569325601168745,0.05769635362113218,0.059971928088390504,0.09442111947028638,0.11176552971105287,0.12101968804462676,0.10153347256664381,0.09936331216499768,0.015616445633959421,0.015867799575177845,0.030813651437386114,0.041435966825047466,0.04963941918154007,0.04352675851314276,0.053908747583029146,0.06928497305986576,0.07944620732273522,0.08777752717530929,0.07490200652660105,0.07115940497474718,0.01918753812724485,0.013853992235235368,0.03342341865540536,0.09212523370757833,0.13233254869189856,0.09070976783391835,0.13643394515376492,0.13397455649868467,0.12689302974561703,0.08444804199507437,0.1375628576514559,0.13771928437787545,0.12956113260668572,0.0015212327750647118,0.03473948534003186,0.06735153758858786,0.09332644028566074,0.10298811739187223,0.1011162114569896,0.09592793456243982,0.09619149302550177,0.09093316284793793,0.0907822406186579,0.09208803831516825,0.10227389404756025,0.10097805579308197,0.09761683525635205
0.13870013271981904,0.14210390112246166,0.13638798479310704,0.07252461368686462,0.07056348541837267,0.058186960145446685,0.05232747170591781,0.09303488449284583,0.10658880763807912,0.08764481118753499,0.07781761596182585,0.04713875464041452,0.0007984997162243943,-0.05637799993973096,-0.023904889623454828,-0.006708001402871508,-0.02205254328300376,-0.012434255916930561,0.0011823484790129276,0.04435680196758528,0.048528052453133526,0.04391554267563368,0.046786241494413204,0.04645165168632998,0.03039409122314978,0.08627213975460984,0.09842715589922017,0.11298700449169372,0.08437560112989123,0.11302337563088105,0.12182983088505359,0.07270052186143244,0.10241411462934041,0.1207814580189125,0.12224948786628331,0.1155525117885525,0.1108991889956904,-0.015824895255904043,0.003156389602581889,0.04809897986896633,0.06117359915658691,0.05694091828511134,0.033349787272069165,0.05174688653771271,0.047688116618027604,0.0498035734532064,0.03794903937302887,0.07547113978913582,0.07400191247172773,0.07010479800807108
0.11945437735223112,0.11674580400472304,0.11317253099593162,0.09761874881693472,0.07016615850793492,0.09301238905450754,0.05689279828261827,0.07594193753966179,0.0869901317888205,0.08433462173929106,0.08450763541719618,0.07783068385802834,0.03795724281001295,0.0018574569007807587,-0.07202563771184406,-0.07060898425777477,-0.06792781973990167,0.0377931723628379,-0.05689453363883928,-0.017445693195658276,0.0018546113358392298,-0.02109977599845863,0.01088480838546684,0.011223657716066005,0.026234403731455008,0.03203431221711128,0.06515907553167066,0.04940644236795062,0.0531317892687385,0.10616409957729998,0.1067096431681933,0.0863443171486577,0.08487918686840103,0.08951552427815584,0.09625692650295413,0.09193824979913662,0.09075416195137376,0.090679280013292,-0.014687597516412286,-0.016554401898161115,0.013597795842124871,-0.0005319727103364479,-0.01820132216504873,0.046484226294265026,-0.0017122772016433278,0.0003578629149927729,-0.010594532227166751,0.06333591689104241,0.05985004399179282,0.05081887821449253
0.10841656829371432,0.0761227985332942,0.08088782362882074,0.05387171561232324,0.06246277125777186,0.058017721313738224,0.07129317410226992,0.060089555475872816,0.06388732795027646,0.06453134105462394,0.06044286701616201,0.061901721513123,0.055173265106677694,0.03355148444376683,-0.0007911479489582565,-0.07053398570388794,-0.0035216675565813383,0.016988658484584845,0.017964213256181784,-0.07436862684680316,-0.06460274342074558,0.028114170437638135,0.009492146104853688,0.06040302416773944,0.03215220055783493,0.06586916849554436,0.08646249330836882,0.028125023726861317,0.10626955658547033,0.1118760897882799,0.10777510991041954,0.1078762025795543,0.08743980276474689,0.09807893941853055,0.05933212787979821,0.068612025447216,0.06916696708160451,0.06391837881061971,0.05975693806840412,-0.013475334127757142,-0.03015178279563928,-0.01887004299872341,0.03529857099767049,0.026303286722953168,-0.025313657590764174,-0.013802741840477568,0.05247580659515447,0.05351742501684903,0.053937548520875615,0.050663824432170275
0.09657752398553082,0.09711235863673115,0.07604036308089088,0.021184997267247922,0.02786950443886689,0.04669574314687692,0.04330971702898768,0.04601828672185041,0.045621559134919144,0.03802335873005629,0.03704824187374393,0.034279994385839944,0.031272221768360316,0.01716626250558798,-0.0015715115218513209,-0.0015193918611404432,-0.06771142682814836,-0.0008089467055077163,-0.0282142291103508,-0.09476733164922906,-0.0002089698961865008,0.0025366736796413247,-0.00550826618303962,0.042535286917151305,0.033789886357633026,0.03349753068390187,0.028143293137795768,0.04567280575980948,0.06728995284321104,0.08374704340454928,0.09305479073679344,0.09423621948138382,0.08348703532493353,0.08358545171839869,0.07313350650777058,0.02995854199615966,0.046637949323477285,0.03950103523786942,0.02718339845832543,0.008384655213413425,-0.020210004181371168,-0.018258059114925354,0.0019858062445335433,-0.024561062017602203,-0.010805842276180627,0.02398106253580642,0.01598086020156508,0.0436023051454752,0.041916855957725714,0.043390011936955034
0.07856972175071762,0.08008509977542039,0.07614493171498611,0.0760656128350907,0.007659603773575105,0.012347082672009997,0.028818852773816735,0.014732921622684362,0.020677814942443532,0.01809759648366857,-0.00033046285309155487,-0.00035161755374581757,-0.0003971093011006605,0.0007276792002182894,0.00028630777985366593,0.002002788262112352,-0.00034727923322139,-0.07103907884896803,-0.05128562810055187,-0.047588621610293154,-0.05318611834377726,-0.02765497622839705,0.029766322407946643,0.02736956796482944,0.030049841478371017,0.04517484194041094,0.013778182234883309,-0.018798656583406178,0.02517757877537147,0.0429545780613931,0.06041357262952598,0.06986532191996173,0.06668459131481015,0.06259557376858274,0.06434922052872095,0.06499527967181049,0.011549564861536816,-0.006590531654591052,-0.0003600740834366788,-0.010461760471418663,-0.01373792368455018,0.011707180283158357,0.0007351763869681313,0.005618302511602214,-0.02333219113645154,-0.02284891394724219,0.03799426213870531,0.03286471228323022,0.024686454390676158,0.0259274720446528
0.05466840006363006,0.05702030676645834,0.058140129487030845,0.04383106780690092,0.0049397626149004495,0.02548663012097938,0.023102189666574187,0.01008290059031454,-0.002584938711458054,-0.0005731173767296353,-0.00450741636669223,-0.027122118111407217,-0.039366361857269425,-0.02759414618669782,-0.02787293980845805,-0.04389779733101379,-0.07398315246593727,-0.06675331901947494,-0.022226042341334403,-0.06905251277116523,-0.030961333889933638,0.01620766634464684,0.024262260394636515,0.033218237436292215,0.04432298963993211,0.04970549690697124,0.04622685291381195,0.014092246154535807,-0.044982337273909906,-0.021010880709556735,0.031328829438885326,0.04699922504066902,0.04444112776295643,0.04359701348679173,0.04144610948302364,0.04531741887414927,0.043324945330553484,0.0021734992908629437,-0.01368556362530353,-0.008817606896060324,-0.00038355291096800183,0.003762957651534827,0.001029466356549906,0.012741757070683696,-0.020392483942529762,0.0023280299272152353,0.023740237123113767,0.020724425621022377,-0.000535015865635952,-0.0006638388325640339
0.02894958859485192,0.03687201104946746,0.0334746530701272,0.023289276554410467,-0.006829412567060605,-0.0010967541002902318,-0.0007297050228672042,-0.0010000403504153408,-0.0152773028019745,-0.253175109747579,-0.2814822710695817,-0.2919691759224485,-0.2941389419140814,-0.27914363672993237,-0.23396060914994687,-0.22734339670174508,-0.08214530169184321,-0.09220349403289985,-0.06053021981612634,-0.02273896880358764,0.01469787977916806,0.02990636186152535,0.03088468052532622,0.02995696963442394,0.03703437974371844,0.036673165833869335,0.043432160997216446,0.03560090501226885,0.015225365317972491,-0.05063959221642549,0.01609535493905818,0.01490388133914673,0.017674704879528255,0.016351143521624305,0.01839509368378653,-0.002761252067458737,-0.0007290857655606047,0.012612170440621007,-0.0007032143319434592,0.03419852698521939,0.003698666472108025,0.0071475467260318235,0.008476672419114007,0.0011640771601334,0.0016845115461610243,-0.017900929189579227,-0.0006073092566033099,-0.0004583947480213463,-0.031766416023545976,-0.11654104048438636
0.005208485323228983,0.008422607240775476,-0.0003693046947313535,-0.0007499376635616234,-0.0006728691770113574,-0.07015869875096924,-0.12156614421747812,-0.11250485447702818,-0.16234105689452244,-0.21343044135711015,-0.2819806510868683,-0.29529392205503074,-0.29578774165782556,-0.29078981149244826,-0.22968085924608495,-0.13787325221458416,-0.09262630264274982,-0.060666224150694774,-0.04681839310256603,0.014791653019166184,0.017926108127954445,0.014502029087288017,0.019499747974099407,0.014472854610724867,0.0010690559240006917,0.026673105324657123,0.054423145119651,0.02457017249148237,0.010844464896604318,0.01113699553829961,-0.04969903804076798,-0.0005414894012231611,-0.0003574851708322145,-0.004264282346257654,-0.0004405631712913427,-0.00035382868738615384,-0.06635761259908372,-0.0471699606585348,-0.0048381718132974915,-0.0012329959688039938,-0.0026040778637320882,-0.00075685847922164,-0.0005967541777234151,-0.0007648374032743555,-0.000752732576554681,-0.0006479463407537255,-0.018296026644561217,-0.2541161400998265,-0.27876153488865607,-0.28454830453258934
-0.043291865798959134,-0.027656811693945023,-0.0831805600584396,-0.1724143346744299,-0.2155013260723366,-0.18394476524710263,-0.15637692291945388,-0.1596183256211835,-0.19468773963061103,-0.20353456299017883,-0.22519825607939487,-0.2834185853495704,-0.29602491278292037,-0.2637748330515558,-0.1692204013868156,-0.13310854457618645,-0.0603141635905893,-0.04204700389217655,0.0026830698676677182,0.005375554993943042,0.008459677019668677,-0.002115385533986522,-0.0023733047942134642,-0.0032818673396863467,0.03157325500123364,0.019558500195223476,0.01598246076949017,0.021778153340421134,0.0073007493858224005,0.004380395150035257,-0.0017330991684065206,-0.04833410866617137,-0.12940155220978367,-0.13726868912525983,-0.18192698380186567,-0.22454864443216188,-0.0905856152568824,-0.08665984042178686,-0.08136183309815975,-0.14977743675737373,-0.2228080793795361,-0.14381415283124913,-0.1301133778177467,-0.11164445056574143,-0.11026334510594879,-0.1316121564612462,-0.14743121262368553,-0.22762028099681372,-0.3,-0.29929653101659626
-0.21894856519863573,-0.2059722784144238,-0.21863676514902625,-0.2200402851260118,-0.2373303113016332,-0.20826039314843323,-0.20189970104101782,-0.19379912572053623,-0.2101475558638256,-0.2187601479493611,-0.21212549604636044,-0.22136547782660096,-0.26168067238982234,-0.1880759116450873,-0.16037210569534993,-0.10952634313868674,-0.04544054232456192,0.003129815667412288,0.006193508278094541,0.00977323428328522,0.015390728583919358,0.01759469813360746,-0.0014865599504631302,0.02247808874060025,0.02698636570597696,0.03717231334608983,0.019775670122621197,0.012754373516648836,0.006555151741019331,0.005954538363722154,0.005178416091549219,-0.000414001154960479,-0.1820007569554117,-0.27080912406007446,-0.25780154650511894,-0.21459935614587042,-0.2010592142733477,-0.20214495834861831,-0.21350658377494294,-0.2316376428065718,-0.24797354747995212,-0.2506370565710229,-0.29282527433913247,-0.28468252978635805,-0.22611982460154062,-0.21438687731052528,-0.21569918169812355,-0.22581705717566403,-0.22656504699889254,-0.29951150886189437
-0.23909381125942913,-0.2404666153868631,-0.291648018854819,-0.2608928176376351,-0.24617255695615423,-0.2269034953741649,-0.22208260773447677,-0.23876108597920737,-0.2542528254980623,-0.26115907362519414,-0.2631461916347678,-0.2611815371045041,-0.19467130025189072,-0.16286271275100214,-0.11963934194808774,-0.0539663256071857,-0.03083573325048699,-0.01808420812114854,-0.00599645598821457,-0.00037330552753475654,-0.0004924031652568746,0.0005779289435631412,0.004576665411683241,0.004336222707664186,0.005220317129590086,0.0011264877151351506,-0.0004078180285178946,-0.0004483073141127902,-0.0001932081453326011,-0.004229392279432396,-0.001111354517833571,-0.0008570596915602948,-0.013130062376433006,-0.20469218961071567,-0.2607211497755297,-0.25791142187973876,-0.24931539188442114,-0.24730652657024296,-0.2502149661651995,-0.2752859813463044,-0.2837626921277047,-0.2914193203104644,-0.28518227483537534,-0.2743384709386058,-0.25442464200418563,-0.24702621887670304,-0.24682696584661373,-0.25379324384249313,-0.2647343552078726,-0.26835182647361844
-0.3,-0.3,-0.278570586461077,-0.26904266299683116,-0.27036259951828834,-0.270528181199013,-0.2637975741463297,-0.2627240085138447,-0.2693329170282197,-0.2672960654122581,-0.2624355075521985,-0.21874614943096982,-0.207198234556177,-0.17634854538519415,-0.13791869939506332,-0.11117729474428302,-0.08351716124635272,-0.08661781840059499,-0.08763948758429596,-0.1122337751961782,-0.044818780327994814,-0.015378820527276058,-0.008772043362597725,-0.013710002521598411,-0.03285559029351265,-0.06293056453491745,-0.08068149227348292,-0.13168363409510403,-0.1889251446754036,-0.18083493246416488,-0.1662865001854828,-0.145483464090067,-0.16711382928291205,-0.2059566234710829,-0.22582110999424623,-0.26726303340278434,-0.26277244023686874,-0.26465545245789157,-0.2735139869040986,-0.2771211804533937,-0.2787812175563548,-0.29148322155937667,-0.2907899134093595,-0.2852877240299801,-0.27425845956421185,-0.27249235406194633,-0.2760540330810402,-0.27399349260444655,-0.2740837686596423,-0.27388688274345274
-0.3,-0.2996479197130671,-0.29877392636135675,-0.2973801304861869,-0.29581509274548995,-0.29611693600444833,-0.2899233992981752,-0.29002565194733776,-0.2812118182363403,-0.2632529437039123,-0.22204526449804465,-0.20864819029545045,-0.17845177219759487,-0.13865360394561532,-0.13682239576131244,-0.13184499912806116,-0.13450589938779656,-0.14843524380327433,-0.17194020042942404,-0.19106555738390485,-0.20305166361702784,-0.2054644590843107,-0.18884227050405245,-0.20275481498885572,-0.2318955237934379,-0.2501396370566417,-0.24126390417952004,-0.21505304332675354,-0.2132390568932117,-0.20537278807143677,-0.19689060296431715,-0.1946064439393692,-0.1933300065739798,-0.19568378907497844,-0.20514584970187139,-0.22778305291460177,-0.2707116320885259,-0.2745311394786761,-0.28339210244550883,-0.28839659923330574,-0.29595932077166076,-0.29667833016918277,-0.2956824552170782,-0.2915699255637361,-0.2875215126626401,-0.2829751900709914,-0.2843189819982883,-0.28852005620567317,-0.2759874535141828,-0.27864046364046996
-0.3,-0.3,-0.2998573526764677,-0.2987395146035101,-0.2966109239758161,-0.2951079682635632,-0.29306325037155007,-0.28720571586015764,-0.2639296916614857,-0.2258645181262989,-0.20855117419750596,-0.1944340652819354,-0.18313885800358534,-0.17500364978665425,-0.17752995372728406,-0.19427088022638483,-0.19684594056134738,-0.1990893609882353,-0.22038318841714286,-0.2350520997175057,-0.269021106984047,-0.27257083995578735,-0.2718993231442583,-0.27202964607800745,-0.278369796480497,-0.28527627634065095,-0.2890032840463533,-0.2952012669006076,-0.27320997829680205,-0.2723988718776164,-0.25712592261860484,-0.264879435819514,-0.2645410324938259,-0.2579772538721686,-0.2351593801225429,-0.2342185337695585,-0.24101012596276514,-0.2803325737459183,-0.28392849509693646,-0.2840467642470996,-0.29378677616896964,-0.2968993709962662,-0.2979905362653447,-0.29690606622168936,-0.2960905591230135,-0.2929541528886607,-0.2889866005298887,-0.28964233495032826,-0.2824922679611068,-0.2827247068310473
-0.3,-0.3,-0.29881867242934634,-0.2987477768771,-0.29805484755022427,-0.2949383947401994,-0.286976237972396,-0.26375042422491096,-0.2527211057484265,-0.23487072963729683,-0.2294499501887144,-0.22087674461998447,-0.21966451023453373,-0.22063911905925987,-0.2203502518144008,-0.21990462850537404,-0.2254919159425432,-0.2320203352176132,-0.24234089442019946,-0.25056636633583024,-0.28106357206886495,-0.29396787385247214,-0.2968680146870026,-0.2947795153104334,-0.29493616059318944,-0.2936532825627487,-0.2969172705300775,-0.3,-0.29976183879986995,-0.29737495479776344,-0.29584686745784466,-0.28127541021677926,-0.2778241688439714,-0.2759606853234051,-0.2697356381653264,-0.25985989149640587,-0.2615836462452994,-0.26337833615772355,-0.2876604838567284,-0.2907468842466256,-0.2913447058834841,-0.2953899732927323,-0.2975185990279065,-0.29570021763303234,-0.2942362001509235,-0.2906663682706366,-0.2901111848469988,-0.28994436361788073,-0.2890178165545111,-0.28913223395502385
-0.3,-0.3,-0.3,-0.3,-0.29425990628190996,-0.2862304132468406,-0.27915220477109093,-0.2731237644642034,-0.2718447280253313,-0.2740353892546807,-0.2653848040761666,-0.2525376145041797,-0.253804754041394,-0.24666785166750715,-0.24157293475594352,-0.24173895712714621,-0.24496967812363452,-0.2519945409729831,-0.2573501076532993,-0.26865656331818744,-0.2853692840670545,-0.2865374947207123,-0.29634559338678185,-0.2991426386562014,-0.2999833608663338,-0.2989339200918692,-0.3,-0.3,-0.3,-0.29583590565406764,-0.2922196210116855,-0.28940375050431,-0.2854990661853782,-0.28505920605377427,-0.2855915526330695,-0.28275254541666067,-0.28111600924334457,-0.2853957869049535,-0.2887443927971338,-0.2911664444420838,-0.29712700638614997,-0.2980719863480701,-0.3,-0.29922865884052235,-0.29594855406597265,-0.29609286422921566,-0.29626240062323156,-0.2975845885409806,-0.29765500110386356,-0.29626283668593545
-0.3,-0.3,-0.3,-0.2941325922976286,-0.2865431201191463,-0.2848201128936228,-0.28413385755242443,-0.2786240433739971,-0.27419914145940194,-0.26586421857946846,-0.2652518871473509,-0.263573321314644,-0.2643966063475941,-0.26637900811620485,-0.2669562883180269,-0.27105355989451857,-0.269227846439337,-0.269350148203758,-0.2719994969799569,-0.2825485708651838,-0.29253673700476235,-0.29467053140728305,-0.2962954790291804,-0.2967640438066303,-0.29918723813148096,-0.2996130149697417,-0.3,-0.3,-0.29779612253715293,-0.29845152851988704,-0.29523208446893967,-0.29352424381341996,-0.2914699174076276,-0.29070301359048273,-0.2894259560840536,-0.2914100984659221,-0.292223561763105,-0.2906961858112792,-0.2919680727228267,-0.29797708977113124,-0.2987771285624149,-0.299380291141465,-0.29979123030853044,-0.2983841541891194,-0.2986747631169667,-0.29845874439648307,-0.29823301165336424,-0.298277370901897,-0.298101651760433,-0.296749196253044
-0.3,-0.3,-0.2963908750147836,-0.29696875005729045,-0.2967412880599137,-0.2973466055052489,-0.2986360057300008,-0.287024450498234,-0.29056846310787293,-0.2862827975627488,-0.28553597240814377,-0.2803939491600142,-0.27803566970351623,-0.28385985617511206,-0.28139278203321966,-0.28202877067110144,-0.2803204826322556,-0.2831113816855394,-0.28562253055622805,-0.2876339291609642,-0.2886765015406557,-0.2927638346124666,-0.29415589143729265,-0.2983931260435293,-0.298787089995687,-0.2995901576888751,-0.3,-0.2995871501470816,-0.2987903863301854,-0.2972921895380955,-0.2968352102918772,-0.29583142300525095,-0.2968527897448787,-0.295864312202223,-0.29522891629028214,-0.29409710795598065,-0.29475999484840554,-0.2964792151681386,-0.29601678900080597,-0.29889236680245734,-0.29901384694986205,-0.2990574075441051,-0.29986296301764204,-0.3,-0.3,-0.29898738666277486,-0.2988127116942681,-0.2989489170340969,-0.29886808896619105,-0.29852143533408204
-0.3,-0.29845860663545415,-0.2974385146787052,-0.29776275841213884,-0.2973864290070041,-0.2972829906518696,-0.298312858266303,-0.29403660472032006,-0.29324045358979234,-0.29418903619280035,-0.29594629035791453,-0.2952112098367135,-0.29030316236381737,-0.28989250243164427,-0.2908318714877245,-0.2912672303581668,-0.2905080216056736,-0.2915885804980178,-0.29170199200740915,-0.2933615510382579,-0.29569827258922965,-0.2974112246275742,-0.2977058786279645,-0.2987232621838176,-0.2987639193919527,-0.2983999543577401,-0.29955043779888846,-0.29957835019575846,-0.299596616697458,-0.29974806516657737,-0.29878714188003924,-0.29754029622707695,-0.29650087066894587,-0.29652549023775165,-0.2967830288961886,-0.29804079306882386,-0.2983859711822081,-0.2980442210990328,-0.29814521622980666,-0.29849943733079937,-0.2985456780966184,-0.2992206585606115,-0.3,-0.3,-0.3,-0.29883454434094703,-0.2990587231393724,-0.29894903861316424,-0.29845067707136347,-0.2992563805679879
-0.3,-0.3,-0.3,-0.29917918597665244,-0.2985399946726781,-0.29838618723978316,-0.29830350443718107,-0.2981069882073075,-0.298449619437626,-0.29933872507461673,-0.29907635687321354,-0.29770023596398415,-0.2961538124648975,-0.2938880682856706,-0.2958072676552213,-0.29501272220451386,-0.29522297650462276,-0.29641677383251014,-0.2975731085383474,-0.29932734274753364,-0.298448419062417,-0.2990852494109357,-0.299136095978843,-0.2989347270550673,-0.29803234506752,-0.3,-0.3,-0.3,-0.3,-0.29922402028283035,-0.299114280134799,-0.29922403398004854,-0.29860979791839465,-0.29854485206824916,-0.29896667252841336,-0.2989694007074335,-0.2991741539938121,-0.2995275558418132,-0.2993600295452866,-0.2994061226562467,-0.29986699006940626,-0.3,-0.3,-0.3,-0.3,-0.3,-0.3,-0.3,-0.3,-0.3
-0.3,-0.3,-0.3,-0.3,-0.29937840042468605,-0.29937840042468605,-0.29988798671574723,-0.29888177158371726,-0.29915454155752413,-0.2987951577315206,-0.29868489686377914,-0.299162196577226,-0.29958316120028994,-0.29806567234242864,-0.2978038640072462,-0.2981353753160217,-0.2983427987384173,-0.2988092919277134,-0.2987419795920618,-0.2995195261220699,-0.29959408274931176,-0.2992000835104352,-0.2999041965325043,-0.3,-0.2997582920846814,-0.3,-0.3,-0.3,-0.3,-0.29986427259774906,-0.2987354159314716,-0.299460108063571,-0.2993119226524967,-0.29937575489570994,-0.29923584555431293,-0.2992412310484034,-0.2994001479872,-0.2995055234533304,-0.29922229317343557,-0.2995568805049555,-0.3,-0.3,-0.3,-0.3,-0.3,-0.3,-0.3,-0.3,-0.3,-0.3
-0.3,-0.3,-0.3,-0.3,-0.3,-0.3,-0.3,-0.3,-0.3,-0.29907442254615063,-0.2991770889476258,-0.29976690012860924,-0.29925593219513213,-0.2989341212695638,-0.2987896863259624,-0.2981651914827006,-0.29851462794209255,-0.2997843933849954,-0.2996911553199497,-0.29967641295073827,-0.29973109259151126,-0.2998400825411343,-0.2999922892675312,-0.2989559057082982,-0.2998924233691235,-0.3,-0.3,-0.3,-0.3,-0.3,-0.29942700550034895,-0.29951578591720646,-0.29906452139244466,-0.299556838617221,-0.2994516355912208,-0.29945854696714297,-0.29958411207668595,-0.299659090375047,-0.2993401070674405,-0.2996941969547078,-0.3,-0.3,-0.3,-0.3,-0.3,-0.3,-0.3,-0.3,-0.3,-0.3
-0.3,-0.3,-0.3,-0.3,-0.3,-0.3,-0.3,-0.3,-0.3,-0.3,-0.2996984757755661,-0.2986873344730279,-0.2981102529318916,-0.29867186183645167,-0.2985755212723568,-0.29864803016073743,-0.29962007054607914,-0.2998967118670293,-0.2998197224691103,-0.29980462057762314,-0.2998468166236254,-0.2999363149133834,-0.3,-0.2996298797275589,-0.3,-0.3,-0.3,-0.3,-0.3,-0.3,-0.2997028790760411,-0.29932821658063574,-0.2998697438768194,-0.2997056087662592,-0.299625655999749,-0.29963338347993074,-0.299733945251113,-0.29978746594951705,-0.2986932196116702,-0.2998141627981492,-0.3,-0.3,-0.3,-0.3,-0.3,-0.3,-0.3,-0.3,-0.3,-0.3
-0.3,-0.3,-0.3,-0.3,-0.3,-0.3,-0.3,-0.3,-0.3,-0.3,-0.3,-0.3,-0.2998762817371184,-0.2997771905155243,-0.29867244052717423,-0.2993227820444807,-0.2988780524468043,-0.29913368183658845,-0.29992429889223277,-0.2999101619066017,-0.2999431964324791,-0.3,-0.2990062901191767,-0.2998821397272302,-0.3,-0.3,-0.3,-0.3,-0.3,-0.3,-0.29894704410698403,-0.2988480576821015,-0.2993159494399073,-0.2998336191154678,-0.29976665033634936,-0.29977467900705795,-0.29985604063789234,-0.2993629390839099,-0.2994797610939774,-0.3,-0.3,-0.3,-0.3,-0.3,-0.3,-0.3,-0.3,-0.3,-0.3,-0.3
-0.3,-0.3,-0.3,-0.3,-0.3,-0.3,-0.3,-0.3,-0.3,-0.3,-0.3,-0.3,-0.3,-0.3,-0.3,-0.3,-0.29965822558876654,-0.2987596790518729,-0.2978344293198983,-0.2977133525480366,-0.29792095907097055,-0.2988462088029452,-0.2997090599860403,-0.3,-0.3,-0.3,-0.3,-0.3,-0.3,-0.3,-0.3,-0.2990070179368991,-0.2985188245492363,-0.29732249740678507,-0.29695268042231965,-0.2969950321868993,-0.2975741623385175,-0.29875532421407475,-0.29978280300916704,-0.3,-0.3,-0.3,-0.3,-0.3,-0.3,-0.3,-0.3,-0.3,-0.3,-0.3
