0.1697707995291686,0.17026510749067827,0.16503523804009104,0.16103960116463015,0.1548321413770102,0.1538701915427134,0.15398209390222403,0.15407786147667618,0.15332786943545956,0.15463594826960295,0.15347200604076489,0.15419411980745376,0.15904427937148974,0.15872581014329032,0.15891274452236462,0.1553845138312387,0.15736969217142824,0.1575047505614909,0.15823265136810358,0.1548627761553383,0.1553329211750933,0.1589148070158083,0.16023257614629732,0.1598137433329036,0.15842529832072028,0.15450152434699668,0.15463686460300052,0.15435207423400826,0.15795810113340586,0.15889278269501134,0.1588059254834459,0.15665508692740007,0.15367695801684594,0.15374751859238436,0.15271041450714506,0.152684678100878,0.15263257469672806,0.1527205823462453,0.15285961504429244,0.15318110807341231,0.15286592098535365,0.15287592549753484,0.1525928290556413,0.15229169606280205,0.15257930352811094,0.15309572669106572,0.1531217516103029,0.15389841898850137,0.1545481887065923,0.15520047321827554
0.1678875165989559,0.16554077653143737,0.1640034547694152,0.16300422456685132,0.16108813030223976,0.1575337311229658,0.1549760915802225,0.15445384673104737,0.1549471384089049,0.15499924053589892,0.15502015160893584,0.15871366540132764,0.1588704862688841,0.1591145358172682,0.15882776672310617,0.1578257658569876,0.15732841568180908,0.15932372430594344,0.1575027387420121,0.15832168741427843,0.1591111636846776,0.15896892836421117,0.1589183059208779,0.15883022340137737,0.1590571927950705,0.15835227652081899,0.15491408144196073,0.15914398964646345,0.1586980638029154,0.1591983157666855,0.1587241493239054,0.15831580099185985,0.15676737535635044,0.15394868746961687,0.15379293271521546,0.15376676317352528,0.15306001546102732,0.15408204817614268,0.15374870334658872,0.15383189049323828,0.15338984286682392,0.15405259391667755,0.15355497087648903,0.1536097370029506,0.15369232009332262,0.15350593706930019,0.15432191042865184,0.15519451799839534,0.15548161231882285,0.15542893229942595
0.167355043207111,0.1669425675278158,0.1653457114225629,0.16438150971553675,0.16358105776697127,0.16287607663876977,0.15834225109360342,0.15712506984006092,0.15660448423320408,0.15638299235627157,0.1591152111798161,0.15934798131489109,0.15928090269889983,0.1592271582681636,0.15943451464159283,0.15940480330099427,0.1592689314426654,0.1594943600046571,0.16025618056989044,0.1593508520549921,0.16005089688767593,0.16038507461216728,0.16008677620923556,0.16014329539844924,0.15891452523834027,0.15846548529030516,0.1581825104140643,0.15882557934649225,0.15910130151416776,0.15935704181782928,0.1591417021979886,0.15844696598171062,0.15724504221907232,0.15609752208137131,0.1548085349558269,0.15468922555453773,0.15500535924713402,0.1552432866550886,0.1551338609056493,0.1552022514904082,0.15495426108670332,0.15464435587381134,0.15436132289518875,0.1545549370031816,0.15479962124768817,0.1551591437821751,0.15530395490615637,0.1581207482521686,0.15555808999046125,0.1556529970197428
0.16555622919543722,0.16563861793215304,0.16478375423439937,0.16445362000576796,0.16460333653888592,0.16409567207392542,0.16191227667832497,0.15906922210247024,0.15882889464978792,0.15936532473487708,0.15961896515424825,0.15964198057465956,0.15979165276333124,0.1601622423840415,0.15976602159141426,0.15914312865424943,0.15837152817691044,0.16062806013114397,0.15886740151829207,0.15977199553072108,0.1596760211433078,0.15985211484084252,0.1598484667459619,0.16008202587213025,0.1596985036901491,0.16193249513383987,0.15951888429697617,0.15923001284695326,0.15922956208852107,0.15923672293787114,0.15904584385608683,0.1588505848720376,0.15841926888584348,0.15772293249531738,0.15731574558392586,0.1563579664568164,0.15575669226410982,0.15562589808564448,0.15534326445998517,0.15539015929108035,0.15526018119584645,0.1554304096642301,0.15544030936541559,0.15498540850359924,0.15550599323463715,0.15550064802267982,0.15624788515616547,0.15612215631544937,0.15576957190300988,0.1559893912087575
0.16369197424133516,0.16534890327122226,0.16497613066345973,0.1646573181258037,0.16420322876131738,0.16345522844190657,0.16280143049843487,0.1627293563213612,0.15971447909524786,0.16017431755455805,0.1598693354044757,0.16031551895251608,0.15994647787392471,0.1600395320030315,0.16027861737053314,0.16008909551775596,0.16114199183565817,0.16057819830112022,0.15993161166857553,0.15999695049713109,0.16311419807882888,0.1601002826597748,0.16001290929676928,0.15984906347208452,0.15955430458881725,0.1596529470007166,0.15919518532628502,0.15989996291838376,0.1598875428895474,0.15936519754187412,0.15940977940691858,0.15897743586551485,0.15839761715615824,0.1575371482050304,0.1578424189041507,0.1571418220955989,0.15621333606287063,0.15598243248869675,0.1557623054179192,0.15556867047925665,0.15561043282624615,0.15564298824576317,0.15558956009070396,0.1562373208826574,0.15655078090159516,0.15648568823857975,0.15638049303154458,0.15694316740992703,0.1564097541939627,0.15826167170934127
0.16460780596746627,0.1641224508958756,0.16457946761046288,0.1646396126394795,0.16472492209960296,0.16480238990619334,0.16433289813320612,0.16332671682008099,0.16289992598185407,0.16125206519795965,0.16120168206500737,0.16053811483810265,0.16065628956652792,0.16029651680027365,0.1603459385310153,0.16052367477027055,0.1602337907241745,0.16014637529426407,0.16023961558530783,0.16021826739928893,0.1601349439866328,0.16043270315068348,0.16038848920895665,0.160871162212993,0.16027940685033953,0.1602796989729053,0.16036288756411912,0.16078589334471724,0.16003362319190123,0.15947092686824899,0.15919018536661336,0.15885703485252356,0.16250330061986562,0.15863722985387996,0.15890586679499705,0.15781878448671055,0.15753645912199357,0.15697104125841183,0.15628182215755435,0.15636939893212837,0.15642222903208078,0.15641862957939512,0.15624671844812074,0.1567733979974119,0.1570797601274977,0.15701136553043546,0.15673019339108302,0.15760109170835582,0.15688940143080354,0.15669107280300867
0.16571656620737418,0.16424566738806395,0.16438881186399007,0.1676520124012287,0.164365560510931,0.16406560799845518,0.1637183634114512,0.1639629080914224,0.1634555377831122,0.16295238328546843,0.16156663552425102,0.16231000859972877,0.1607690926254168,0.16083618961699542,0.16065478043216785,0.16069992531328084,0.16041153201479064,0.1602067553675287,0.1619992791473981,0.16053331745670493,0.1603040786974988,0.16040455823728209,0.16024686404543015,0.1603195826597938,0.16040609248616408,0.16053019381825182,0.1602525202948294,0.16010447168703343,0.16004666759449995,0.15984119457535348,0.15959825191054755,0.1587334119085519,0.1582837281292181,0.15835463358342036,0.1657234405876801,0.15861279668737832,0.15823479595482734,0.15759619308063053,0.1569016534879419,0.15689465297828578,0.15648156168109661,0.15689823115906906,0.1568570739465682,0.15717232946089477,0.15721847659534452,0.16065545791694993,0.15720583592234846,0.15675130315375702,0.15539180052437984,0.1581001703127858
0.16880250104486189,0.16353966073846124,0.16205381555365114,0.16412527976576924,0.16421613185963305,0.16441672416012656,0.16432962406498575,0.16428367539122346,0.16370388970526312,0.16357855281665543,0.16319263416053628,0.16189507605633024,0.16106457317318856,0.16087001248602742,0.16962598875744223,0.16203140819815035,0.16096489954768367,0.16036905437366292,0.15990541280847348,0.16540951714219837,0.16048923988542566,0.1602633701803084,0.16025118962635204,0.16037024715464132,0.16040796471770677,0.16050208486390283,0.1604796985625254,0.1605101973571448,0.16033607237365025,0.160120389722952,0.1579409213378003,0.1573565561214139,0.15969563728183975,0.1584189190698502,0.1588389467419551,0.1585824089009085,0.15842413025526972,0.1580982327215126,0.1578671071867045,0.15693153441304283,0.15660290318429132,0.15691920631579603,0.15723404701557928,0.15954704913666629,0.15732931801430122,0.15728739053153742,0.15318620817729084,0.1567116491773652,0.1550588842035023,0.2044924046232251
0.1692420451936374,0.16362038624411693,0.16363795209997425,0.1640042074395014,0.16600939557103356,0.166832714994596,0.16422834692013893,0.16389536038959382,0.16483499519418224,0.1641085483217076,0.163630487260378,0.1631054596428387,0.1618957041183468,0.16090581469789172,0.16065796154738615,0.1605536167055499,0.1606135810822851,0.16127326620377364,0.1605926686918364,0.16031798610390877,0.16362869325736645,0.16001313637867828,0.16513459695953708,0.1601833240784894,0.1657909232295526,0.1606136981200659,0.16030448245779713,0.16082444212446423,0.16019684053158914,0.15993154688695677,0.15839279105320633,0.16079163417323541,0.1572734287703778,0.15849012385568295,0.1585242179638884,0.15843343119886194,0.1583936207537219,0.15846340332411227,0.1582161827167676,0.15754684642059988,0.15653073893904887,0.1572815761542674,0.15728265539855427,0.15725940441947694,0.1564059512471724,0.1561304823914041,0.1559264578236267,0.15636300024102234,0.1555579606847828,0.16853341322109805
0.17009499036445913,0.1615002848158881,0.167229215120543,0.1615460654099,0.16381301898141826,0.1634944576660455,0.16427421762906802,0.16410760064917443,0.16406995942648553,0.16403355366324293,0.1638329447205899,0.16373985140839867,0.15800277985761543,0.15758297921496753,0.15820607011346388,0.1605076237066879,0.1660786076104059,0.16063172447993143,0.16026874858061152,0.16030674134559905,0.16416743904275738,0.1542723897655297,0.1584771686539603,0.1651827743650084,0.1622686938250434,0.15930984143065915,0.1595092210286494,0.16067606907369272,0.15357866448199642,0.15527610277266202,0.15487153015568875,0.1546301616317206,0.15545024343237537,0.1573841659334656,0.15830437889802584,0.15834449677043858,0.15833599109068575,0.15805265557871492,0.1558606396097227,0.1564638849878207,0.15722551839857823,0.15711741968168022,0.15698250191400928,0.1536240773685727,0.15405206650142864,0.1548022761456859,0.1546098514930195,0.1556085216747211,0.15490495090685133,0.1556606376204434
0.16958879842138375,0.1618907285804237,0.1610971586750559,0.1623028010094824,0.16332917526550164,0.16435243375548578,0.1639031361702547,0.1639755178193716,0.16391203179113853,0.16370255374348233,0.1660112783251945,0.163467937024393,0.164426746380269,0.15665384661681087,0.15666759536747,0.15946373568587283,0.15680406890154602,0.15560455779804433,0.1566034859996284,0.15716905216455337,0.15686645216224432,0.15881924419223561,0.15656388368683302,0.15357454131568418,0.15903253115008165,0.1584934375185486,0.15892208660107882,0.15758042817596413,0.15513381391743308,0.15544922883638615,0.15564657825415001,0.1563864212636974,0.15469910759780725,0.15488657002824857,0.15336245251602332,0.1551268795456589,0.15445054871122454,0.15384314824880038,0.15645186261102983,0.1561339416683686,0.1561224655399378,0.1552473598555017,0.15155824416428534,0.15282936173639103,0.15327227229122278,0.15322820073835292,0.15623039312367107,0.16365900552936075,0.15498451594121226,0.15433276949052852
0.1683101361737744,0.1647031773872596,0.1619860797494838,0.1631347671576495,0.15823679492709297,0.16361132186239152,0.16143582968949563,0.16161711626398065,0.16219061140532964,0.16049574562521232,0.1650955574613967,0.15944444961420912,0.1586641166294232,0.1555680744247089,0.15448816801059054,0.1559896237786621,0.15512945597989322,0.15950757752249625,0.1531988035952537,0.15625935759127985,0.15554469412087268,0.15433028475676244,0.15498818555505678,0.15653433373483094,0.15813937968581543,0.15673581314999271,0.15626545597145816,0.15864664288918273,0.15613593553582486,0.1582966000890285,0.15471113000157632,0.15521319795721222,0.15407372920498155,0.1526631575306775,0.1524091283689147,0.1537236537390323,0.15382112843315032,0.15317864591293764,0.15375595597030384,0.15394773646439505,0.1535792783833067,0.15231776107274625,0.15121352313336847,0.1538662259718649,0.15413293817508422,0.15346533644977914,0.15292819324098003,0.1533933455147849,0.15401015647134078,0.17364453815721245
0.1638975066925058,0.1602617664313423,0.15717997788047508,0.15897432705986128,0.157481353834221,0.15921051953039167,0.17137998906798174,0.16456459292357062,0.15856637215564373,0.1558367541617743,0.1720138626667,0.15577647023442315,0.155228064383968,0.15595737117576602,0.15413679493413945,0.15349996955434678,0.15366969727973748,0.15278607591863136,0.15215491138483936,0.15231543289263944,0.15337296154247287,0.1553881928891065,0.15344194155229054,0.15190011365664588,0.15272607584803619,0.15410782949307636,0.1534612557677302,0.1523040288952303,0.1544263597272745,0.15454113321279458,0.1496912577013387,0.1528720404238203,0.15288414797215866,0.152430097044389,0.1531866313608133,0.15227086835068018,0.15348508492779597,0.16141345783295827,0.1526531795882079,0.1547163726747704,0.15189144534326038,0.15078515044855614,0.15249741826295493,0.15165245338816377,0.15042929526117316,0.1505663499172757,0.15267692077216063,0.1535652424741069,0.15256779807922008,0.15217894263708354
0.16700433040353285,0.16081063169405974,0.1625958360088471,0.1583555922737661,0.15762957650200377,0.15686131032980963,0.15878582513089654,0.15834824857323793,0.1551444601796799,0.1572004142248528,0.1549338566979681,0.15375811818484808,0.1546879946780637,0.1537738387756768,0.15012603978723182,0.16727096154764687,0.15125872334405238,0.15602912089646756,0.1564980343831996,0.15123064529961316,0.15462889281504974,0.14988804752460871,0.15067880664361302,0.15105973259686728,0.15112588681588918,0.15001765989699434,0.15221996306206945,0.1484265420648221,0.15079148234991097,0.15234201979721154,0.15374776725029363,0.15294118476227983,0.15819429568549803,0.15313076198622805,0.15135476011969698,0.15227540619127813,0.15557824717911595,0.14855430592345575,0.1512139378844368,0.15242872770944244,0.15363451495254468,0.15088170090156752,0.14820597361467633,0.14939194571295422,0.14991605555551446,0.15403166911030797,0.15136920258803221,0.16626227155876586,0.15023714480913627,0.1511005402527794
0.16399397807909233,0.15898870085378491,0.15981366173593226,0.15392316583861418,0.15344526730244898,0.1535771041210174,0.15426069917101393,0.17284116915202372,0.15881873010904682,0.15405578343655382,0.1681351246600258,0.15218850835827338,0.15471001664459735,0.15017091470694158,0.14955110843186356,0.15151151772785718,0.1497910637457411,0.15184291910946573,0.18416275739510998,0.15037187059135032,0.15280121640570768,0.1501416298049315,0.1495396848094202,0.15233256413652133,0.15001422788218477,0.15321600193961546,0.15205892044935615,0.14860107498262237,0.15073518579372427,0.1481286768841413,0.15256990169870652,0.15500459189004817,0.15123403142010688,0.1479678276239821,0.15170370337289674,0.14800821644126425,0.1521815051163392,0.14798506727214328,0.14494090974900856,0.1450487873305053,0.14954720088855192,0.14711780934884516,0.1471838416330557,0.14949458746834496,0.1492068711306373,0.15004617047278748,0.14457210355048092,0.16792949675854135,0.14887808155132196,0.1496534804876717
0.1592499159318465,0.15729037482533506,0.16729464146599204,0.15315365003630213,0.15459329378734246,0.15509927600934517,0.14965695397353776,0.14539909786398683,0.15428530586835362,0.15407734471430162,0.15169383423484803,0.14939138814440242,0.14901621348155766,0.15050674701975378,0.15000676601456928,0.1462509911516977,0.14739856075286115,0.14396189245093333,0.18551414464188654,0.14676545476076724,0.1454797477381356,0.1467926145201519,0.1472035295749563,0.14443611697475253,0.15733784777274634,0.1498904950917399,0.14842736070510426,0.1495407647264473,0.14909042297064626,0.14832197212957035,0.1460729318804503,0.15096344813074433,0.15049958514499698,0.1479237149713798,0.14736905173077805,0.1452175178679091,0.14228210578819817,0.144325689276215,0.14912129306956212,0.14382715501240964,0.14068298988538952,0.14120522433119828,0.13969985734833018,0.14634257962539643,0.1446731435149128,0.14228009214292384,0.13938448961414612,0.14614525907773404,0.1481495047627133,0.147712718330882
0.15544624320435918,0.15981608762661223,0.15841020178571663,0.1533837545410174,0.1526880377233757,0.15124577438143108,0.15526259986744975,0.1481157405224683,0.14450792913156862,0.1532709736027946,0.1510875987654525,0.14737948568504242,0.1498969483546946,0.15672386279307765,0.149112988750226,0.17156719952524024,0.1441559034347256,0.14367908773281735,0.1437009603938748,0.1446077436053474,0.13967424760763195,0.14063507823532098,0.14152684658345155,0.1450954368861274,0.1448242351544333,0.14818498401270627,0.14824352083930084,0.14776271748075853,0.1481233282745837,0.14894878698143374,0.14584305617258747,0.15020988034872332,0.14468398769504917,0.14989130849185112,0.14896593712829198,0.14355262015922315,0.14969237487106848,0.14137288728394581,0.14242030706641917,0.13770349934648626,0.1358149013911333,0.13754577697715448,0.1379441736018517,0.1419806828732968,0.14333824230563524,0.1382093542577199,0.1541408932483813,0.14503046610630485,0.14499305137177942,0.14633890457952786
0.15443237216208092,0.15385603411210924,0.15184592395780347,0.15172919462815213,0.15145222316060536,0.14473533650907702,0.14898963458567344,0.1462367299262749,0.1418758728728771,0.14954765721385718,0.14050765111752622,0.14792173733112912,0.14732904560095036,0.14620609247140645,0.1616074816761319,0.1410564343357805,0.1432631978649753,0.13914931578598327,0.140157262922015,0.14723743107860898,0.1342350267795064,0.13542491431754808,0.14152002928239713,0.14127671662212757,0.1357579247925926,0.14676255577376132,0.14905520077288242,0.14266615195937501,0.14275075904556328,0.14258955708381477,0.14575919195851378,0.1410100803678821,0.1490872573869986,0.16083741420326444,0.1352904431478529,0.1376415670300931,0.13675333005402354,0.13667980819595085,0.1372230198013941,0.13544323958357213,0.13414985193508844,0.13399514566897458,0.14310600084675845,0.13616715317248562,0.1353187607688252,0.1374896243836671,0.13751835549423758,0.15984125209281763,0.14426327218135665,0.13495085704777346
0.15231170957820897,0.14796364331733416,0.1673246227233261,0.14834098008860788,0.14239031440282443,0.1493452813785262,0.14382920602801846,0.17180358418661174,0.13624204560094913,0.1402403841671117,0.14511859831182328,0.1450901801716503,0.14569542165545454,0.14097294782937345,0.15416394168634476,0.139519964756343,0.13331035377275435,0.14133570229397271,0.13888627724561206,0.1494586030001484,0.13359772642510834,0.13423280716412306,0.13433574885156865,0.14080405503727456,0.1378732903401551,0.1305738612147312,0.13091803894425297,0.1381009223767845,0.1388361341518745,0.1437154618133775,0.13355651885317588,0.14092441891605614,0.13910745410019087,0.1352460869903724,0.13754856057291992,0.1351462181675425,0.13744319078343825,0.13610247404873854,0.1330987641217131,0.13480300145907487,0.1253933878838951,0.15634243096401937,0.12471179163170198,0.17286362793777899,0.14335272958631612,0.12788385928161497,0.135838226506369,0.1284960914465431,0.13373706571568766,0.13412551595415403
0.142035219628029,0.14538348407326218,0.14710846001637964,0.14664251778093493,0.14697001920059302,0.13577580118013013,0.15829845669389755,0.1352240128700704,0.13778686667791729,0.14037756813137728,0.1411879399157723,0.13996882017024992,0.13572511714226468,0.13053353514213564,0.13816744201575787,0.13847982316451446,0.19736694610565833,0.1297555488167597,0.1533819012893782,0.13724157075566812,0.13200239859982157,0.13180989078099972,0.1358887567566735,0.12095673472862442,0.1356469909538745,0.12946901870118865,0.13736719539679262,0.13048511589962097,0.12956165370250292,0.13938201078850182,0.13232374208412714,0.1387235033320713,0.133395573167447,0.13828450173560838,0.13153031171541982,0.14565131041140297,0.12973974688051895,0.17202769068776608,0.1278485145671671,0.12905722970009198,0.1300128941908367,0.10880092532536934,0.10816178890846154,0.14031015145606016,0.1419090901108641,0.12221834756415342,0.1272155383852966,0.13094127034340863,0.1325503509282234,0.1327889856452014
0.13000893946600833,0.13378829519536284,0.1417025824022007,0.1316120203843435,0.1258775021473496,0.12358351611237899,0.1277334453594789,0.1373032805795783,0.13436070901004124,0.13875841851971343,0.1388569862938551,0.13346693482963698,0.13343208549923236,0.13546332230356153,0.1323119312783869,0.13749729543451705,0.12903775690081978,0.12305768740839879,0.13486382267794841,0.13527752322378803,0.13498473089517593,0.12890939808995472,0.13126170495807227,0.11934413901007679,0.12040820991551619,0.12480844815442926,0.125221262025486,0.12944370012175693,0.12947530498732085,0.12784152977886676,0.13080639480517978,0.13289361912105813,0.131007841869832,0.1342007847909246,0.13144378793980965,0.12770650036607867,0.1333606720712843,0.12611669892191435,0.15650134364206514,0.1247563005128522,0.13420675722965453,0.10811425557527445,0.10783604153686539,0.11110214402483819,0.11423885294305991,0.11857219533818696,0.12170115961952827,0.11761723409876743,0.11082651343026483,0.11719851382714865
0.11366174441502423,0.12447985375342142,0.13021018640385906,0.127848945261131,0.12907193989635188,0.12329546883552017,0.13184179295936954,0.13399795644053827,0.12958430581589783,0.13391304041188512,0.13232662321367508,0.13349550153402803,0.1331406512790447,0.1320888720921256,0.13219380330873537,0.12651631885977788,0.18618418637731735,0.12167868870306463,0.12301954754381547,0.128043597840574,0.12790824109245486,0.12865069658480308,0.12581510761962186,0.12052581832417308,0.11760657120505592,0.12023960522225749,0.12491204858224762,0.12402572292171099,0.12795685890344227,0.1275714227007591,0.12651540050266152,0.12350209682113296,0.12660905174724407,0.12806796274295482,0.1276022060076041,0.1275598962762678,0.1225282585350295,0.12306809982197642,0.12426973521133952,0.14982806199337442,0.11914877227139359,0.10661932741563532,0.1045704809572063,0.11166322415124334,0.10310715486481539,0.12278293642809404,0.11659874607452493,0.10789344388293383,0.11049378799673609,0.11529357901742507
0.08649022036553768,0.09378551794217081,0.10174306872514437,0.10812258097041155,0.12168542437565553,0.11989634639032162,0.12098873763990713,0.11396768966851209,0.12934326229204196,0.13325417989851548,0.13338126524454316,0.13060322203962774,0.12630302696543047,0.12495761181152754,0.12549793787905014,0.12811078563671827,0.12530727382349513,0.1205415293775499,0.1302338232951782,0.12689675333580036,0.12703816625136502,0.10681591300166046,0.12339558849987252,0.11757723800500974,0.12671833817826836,0.11826158734194595,0.11338417994238857,0.10188886859934554,0.1232024377375098,0.11677515225456349,0.12321245797761803,0.12587763552205547,0.12419185766322699,0.12382819384031404,0.12039442559508008,0.12223547784541539,0.12243578994116432,0.12014966613392017,0.12216470137731279,0.11235825564189246,0.1260992469875712,0.11516536050751439,0.10109253049985319,0.10264247176310806,0.1066606834024476,0.10276253583934698,0.1070965720617426,0.10697122456576082,0.1740465555511601,0.10927947843613338
0.061270180713413794,0.06986925560442869,0.06623798421656445,0.07496347550835648,0.08063120008070236,0.0999917616443762,0.11118274522638698,0.12131595202801407,0.12329898361021178,0.12637803393741048,0.12999175122194462,0.12965447424998908,0.12330216061775458,0.1268260763707019,0.12098427263592175,0.13869991526209838,0.13134157960026965,0.1205225205152836,0.1168316243147388,0.12424215512162413,0.12411386701140036,0.12252151841031488,0.10617050223448264,0.1217191816715121,0.11740718386437557,0.1138175600449749,0.1107277929361464,0.11269391602337639,0.1016720209749842,0.11891327808005625,0.1147042935352452,0.12224671557652915,0.12213641148879209,0.12228336365780261,0.12063781883788983,0.12002335554927655,0.11815023579831045,0.11866658859585169,0.11870721608032948,0.11810351498433591,0.10059815030916555,0.1004111299767441,0.10844456113516793,0.09813827050825628,0.10232335367109766,0.10423784422626092,0.10618243405039395,0.14236337467825794,0.10334897268037056,0.10721944500337974
0.04099617110235647,0.054671431523405076,0.05651201555927446,0.06111246563866934,0.08137412383773486,0.0994046969316692,0.09221338108747715,0.1056961579044979,0.1154100545662298,0.11781421271833253,0.12221765879271135,0.11626189287321499,0.11272368947141446,0.11919842553388219,0.14409074851882642,0.10689290779739813,0.13863645037281916,0.11643387029423694,0.10403102599580177,0.14622751342957402,0.09297912298850429,0.09830878594408103,0.10604157631761289,0.10562945749652121,0.0965491223980356,0.10870126256558173,0.10948531760786888,0.10942154939827081,0.10150250660224597,0.10090552952856521,0.1109012823689203,0.11637285412478805,0.11988026355460524,0.11962160357627573,0.11836419396765971,0.11535630557422281,0.11801949163656672,0.11805134967471613,0.11787984705725703,0.11341005616294549,0.08362608118802463,0.09999696412306656,0.09761596983934057,0.09761993124388516,0.08963253545416816,0.10191333285591211,0.08886860440376351,0.09296676564412554,0.09830198738600365,0.09870807510542147
0.03922808320252395,0.040702302585852404,0.04513784509344832,0.06569243261246133,0.0809674058687526,0.08382427678671335,0.08714834957529095,0.08843813809046373,0.09993191776738858,0.10307263266416139,0.11289038726828161,0.10393212475016606,0.11437210481613344,0.11360892331320642,0.11157822402619895,0.10517527801427251,0.10446895882568831,0.10881328168977196,0.11638938431510669,0.09771888265069548,0.09358347021647842,0.09783251569060325,0.10287510325304995,0.10026846037030657,0.10423920430138098,0.0960969873661886,0.10534986405981743,0.1030629291727672,0.10023000050327266,0.0992164387484467,0.0828885396146902,0.07465912874582474,0.08621500325965638,0.07454523720869861,0.11139707689179716,0.05180722119229444,0.05956187032300298,0.07492486320649008,0.0819931924807497,0.0835501764663004,0.0770185444545033,0.10250936915221229,0.09212047848546404,0.09631298128179688,0.18165865681391813,0.08920369607510083,0.09970973795836506,0.08748941867552608,0.11836345457883361,0.09155965339635173
0.03787053410083418,0.044820232359882674,0.05054368376796188,0.061529421813347945,0.06973083304773857,0.07313548584676043,0.07369180776215493,0.0845612648821474,0.08288951261273834,0.09320346693990042,0.10164436286435055,0.09223543549770188,0.10611105763728212,0.08487805863504429,0.1430779625926889,0.09371733108445558,0.10413833504049054,0.1132587273871313,0.10020386905720828,0.09089638607058301,0.09283204817912398,0.08908660989800762,0.07788326527185839,0.07914799764207305,0.09322497824261121,0.09833748614905592,0.09671545322976617,0.09891605591990132,0.09682343493110565,0.09683349398392414,0.08128965130432461,0.08168901047517035,0.05092792030658317,0.03715177003525708,0.06531206860440937,0.05808378107267345,0.04892782757107428,0.053614666858916145,0.048625168442516756,0.061415140475483854,0.0757410799160908,0.07825789109276797,0.08428388694675056,0.084844757766874,0.0886351198751858,0.08481851342940418,0.0845351610556804,0.08543420620067803,0.08863802192914698,0.08976587506386748
0.044710814010868224,0.044791282504620764,0.05116512852220636,0.059258578841590595,0.06949275430495139,0.06830271291372599,0.07212182400135972,0.07087724727823862,0.06720106136153638,0.07769191691564105,0.08836927915475358,0.07825306480023529,0.07860765568138037,0.07191109386274475,0.0877201715649272,0.0890919723412679,0.09456165867758577,0.08332850904734679,0.14506078361318395,0.09369443984601335,0.09297039225753104,0.07845035620802009,0.0757883075581406,0.08857112409110174,0.08416426019280979,0.08877791688623002,0.08760445250446933,0.08844878463502506,0.08679434368872066,0.07919274705189429,0.0731993824584623,0.0595371781669613,0.06886527695721753,0.04694152009753925,0.03594756832484085,0.04674742721216706,0.04813058773026263,0.04841490243691678,0.051943401910815035,0.07306604457971441,0.07562232348162683,0.07668648730313536,0.07661238398687235,0.13311352283537725,0.08628814476655276,0.080118016390638,0.0844076646876642,0.08616355060153208,0.08631547329842092,0.08723843790188872
0.044568087705002424,0.04692293754610818,0.05375321745508463,0.05737468662055164,0.06053097840063527,0.06607900049160932,0.06552587115643345,0.0593637587171635,0.06424664984666581,0.06607927161897574,0.0697555998160973,0.07636677225424815,0.07481954995531225,0.07412898171359325,0.07747800475339787,0.05995177744688662,0.07876269330854072,0.07468506361868332,0.10411577001964488,0.07730930312863801,0.07670345397970564,0.07325916369862819,0.07520933688045596,0.07464914745553698,0.07225209962875336,0.07838773194822225,0.07223736708239559,0.06580409970869402,0.07369653011222453,0.07426961263478414,0.07057634595865542,0.05312866471831253,0.05831632853317914,0.046590837488876685,0.04633367114167538,0.04067180719405374,0.04473061622982113,0.04822592140069375,0.05141966204667934,0.060403794964339334,0.0687090912418267,0.06417903281091523,0.0822099975991994,0.05331158424802604,0.07583608889122835,0.07993431635983995,0.07995659446565076,0.08315824824648481,0.08369828945830755,0.08358816021217785
0.04458847926680988,0.05008677292222499,0.052677171567229834,0.056759294946170796,0.05452791699391128,0.05768068350555351,0.06350353382711979,0.06251142030650989,0.056287606630241516,0.06139011130507405,0.06514403494994918,0.0705432602584272,0.06822666617377415,0.04655996465102523,0.05834050613423581,0.06581425056268725,0.06779827534759662,0.06333531019995298,0.07584286672618061,0.07650553292371219,0.07272110939173015,0.07292557162916899,0.06225141418897877,0.06418444144437134,0.07214182807652617,0.06248569536021695,0.057314321074459745,0.05048144675107362,0.052326348507945326,0.05951646712416875,0.057320248939205044,0.051661125324325596,0.043481945605573356,0.053797070830211194,0.03945367381902404,0.03256958527458874,0.047388733932153745,0.04743028270600709,0.04822838711616988,0.04784279012706199,0.06026561865399415,0.08645718204921182,0.05118861774462244,0.06421742159017557,0.06803391415324879,0.07125966278349799,0.07904779937732981,0.09915323054909664,0.09736478965204959,0.07850060560499691
0.04499955403799158,0.04808326534718327,0.04397985882198645,0.05290388507717943,0.052690010632926026,0.04916577377224007,0.04845362982548005,0.05468493775682643,0.058994981711978665,0.05554732958077538,0.05398301474512392,0.06270658288530474,0.06312069190599665,0.04144331639355313,0.060654954652020254,0.05148785138482187,0.06491634665377126,0.07475918167564229,0.06428117815878129,0.06668464311244447,0.09753333314431087,0.061606734926280646,0.0637762356736221,0.053268114874583855,0.05103062400173771,0.04197241033814665,0.041328970444052204,0.03552354421632853,0.03593108392341875,0.04151254229473095,0.04554239940278458,0.046766429584958503,0.03791509247989158,0.042595712670591764,0.03583336299761604,0.04162588224575929,0.032269500751650124,0.03857160053212784,0.042536018527610894,0.04978140408188347,0.03940209237330382,0.03789236067442443,0.06332836033958544,0.06579961307469036,0.06411802192652248,0.06887363545572546,0.06995209266310246,0.07328172297946449,0.0747622030999188,0.05339898054760686
0.03262477341655294,0.04065351441125828,0.04287743716389592,0.04052640177929133,0.04908177154105926,0.04544792675089192,0.05372320797907143,0.053699915858592726,0.053770686382019435,0.02699386946661915,0.03916915342443914,0.042725087891388326,0.04897207975090717,0.04941689491092126,0.035996525244819555,0.05227708790152573,0.03136340685579208,0.05440408453526422,0.045612922210094047,0.04339098844942039,0.057600957033479325,0.056479462354105184,0.04666807887301398,0.051302220387969055,0.053024842911311106,0.04978579259406056,0.02599768538108362,0.02250608200513261,0.024509562543449714,0.028908595436361095,0.03521373799096729,0.0375161268039332,0.04118343343508805,0.03753509417749942,0.037043027608006145,0.03205003904537121,0.029293888790399965,0.03112767526601984,0.0306149385795922,0.035773107726720876,0.033012412423467426,0.051972103451499045,0.06226880849536568,0.06329992486190518,0.06025573703698387,0.06607520027509924,0.06599882495684456,0.04972079101141499,0.02666414511640786,0.02785026728982325
0.03264616944177863,0.033901820758789905,0.03919576259384517,0.04366249583862551,0.040855566423229475,0.051151922877899374,0.043204833595465134,0.04698727357610876,0.04400606974737673,0.0417636840838489,0.01744126978071237,0.011669470854786616,0.016376258965629605,0.03494203048740453,0.0472876255240644,0.032562687954112324,0.028812377157527252,0.038856350686012224,0.037446777090634854,0.04487117951138364,0.05059203220537327,0.05085899624897968,0.046271057060004075,0.050547979785192335,0.050504145790014124,0.047761587744039956,0.03655887092145113,0.02230914564712949,0.024533017946488524,0.031912163084718025,0.0367059533598432,0.036857125791128036,0.03686525502932404,0.033841796097359454,0.03352758932141783,0.02598775739231166,0.028682200552129385,0.028333877951391424,0.02740137795727253,0.03152492821797229,0.048567378910562745,0.04811410838325809,0.04900749364829184,0.05933607873144658,0.05338424341886234,0.05871115019403428,0.05314901627353806,0.03872636317226264,0.037997762797669137,0.026721057508822182
0.02457571719743154,0.02890294254204314,0.025998409216094275,0.0400154731060286,0.05325591787438681,0.04173889258695047,0.0438933018396244,0.036585260338768896,0.040737038583603113,0.027008064527711314,0.021588454430491934,0.012637405122302416,0.013016363984683215,0.017778825760651804,0.030755585557804714,0.03196929089457496,0.0532786149277635,0.034753175498270186,0.03589323359393708,0.03608390799752625,0.041774478836091,0.04624103474913627,0.046146836619413545,0.04767591196732984,0.027239807924291096,0.045407118545407486,0.039441424519743536,0.02560240829240393,0.02874764885064045,0.031185394576967052,0.03422735681208153,0.035247759220002874,0.03439838043188794,0.033369467593870265,0.027297823044177598,0.026173418270487577,0.02220632001010035,0.024656269378464227,0.030538806750901985,0.03333810033063794,0.04065457344804624,0.044098106957304886,0.0446030840078653,0.05175565189226429,0.050074546870633306,0.047861248885434846,0.05132332258457678,0.03616067299156795,0.04784554697430038,0.03512928637027969
0.02278721463214288,0.022270251888377668,0.03892242141126219,0.037724810319815366,0.03882338883380024,0.0171011349129771,0.03246468734913121,0.0352676704299964,0.022979329856904596,0.021517431199005992,0.020420875705257222,0.011810102572457374,0.011215619052104393,0.02958399080402724,0.02073620186705529,0.0361222750677632,0.017928566648763435,0.021090065967319157,0.03216421878560053,0.040455385938590493,0.04187402544088055,0.06139971508681437,0.04605633337896968,0.02210284174587721,0.021140111407475324,0.02043756440963134,0.04068944877540071,0.019243459899107546,0.02944000743896855,0.030630481374160773,0.03193767396798753,0.03315928825358992,0.03259710483798704,0.03352258924797334,0.030039907172156502,0.020315879138773644,0.05337882186506218,0.026868186167998947,0.02721384010411704,0.03075625247619438,0.03913246408966339,0.03559064139876273,0.0378744898180847,0.04624198442816113,0.044878684903895225,0.04839143774281908,0.04457806232661832,0.047913597682286445,0.03342653477374696,0.03417413530132911
0.02136754348425865,0.019350471537075423,0.03641736987681543,0.03170010434711816,0.017109771588542638,0.02032214788617448,0.021682956101113166,0.022499105032895636,0.032019410915828,0.018580726104440556,0.01340052868637669,0.011941941229658021,0.014136792735814769,0.011082915988751616,0.0505607118257384,0.014253830713977792,0.01771596020945662,0.021165625305690643,0.029410007461723404,0.038821964593880154,0.046207767033796754,0.041644328322593675,0.042931840841724356,0.02062535583788126,0.015588875657691039,0.010406629468904756,0.04868102149104367,0.01627836311313772,0.017162776783397626,0.029676254501525168,0.028479167512316248,0.030878915030269332,0.029560106473573395,0.02868552451246804,0.016470357192103807,0.015449852524468018,0.01754865848909707,0.01990055242194351,0.028654316731192123,0.026056276155954995,0.03295017743060036,0.03110118878779303,0.0418365831528423,0.04390035424254188,0.04054775510106088,0.043252319150025274,0.02686510175129838,0.026339171624189788,0.06550789429542322,0.03250476353212467
0.020354145313471732,0.017371322109705337,0.025705746704838443,0.011357868907725052,0.012529282055872518,0.015469408262581573,0.02002681556370755,0.018153653387791163,0.014732405418044261,0.01713212521214337,0.01695822431672522,0.011459310210370435,0.00988608600796653,0.01003614606178315,0.012107851308232985,0.012499446159278765,0.018219266724397807,0.03896642425937412,0.030578247706723027,0.03281567777361933,0.037717349001536254,0.02672708806720053,0.035937430208033326,0.01937271902847793,0.016996674066665746,0.013064422226022318,0.010859340359057489,0.013517811744162896,0.0160058799493099,0.021371512026521527,0.023327806198399782,0.026145161626215784,0.025040467629695504,0.021088973908267264,0.01727526091445731,0.01312288193062758,0.016052944850538556,0.018722441366385366,0.02397325718629658,0.02435328990465286,0.028652757107698653,0.027742995213947935,0.027756298432970086,0.03906004771997406,0.03662142033388887,0.032922518129455326,0.029254068023924457,0.0222088705779783,0.06753791616736522,0.004080736144492016
0.017042373247256548,0.01814904642996336,0.015561274986968665,0.012622781217895514,0.009542971024885001,0.009821441597281816,0.00730077741616514,0.010414897791897922,0.011314837231183346,0.010914094891415404,0.006867787608355627,0.012774405057492048,0.007919285174482654,0.01431768119915286,0.011721745037776385,0.014398472898024733,0.013669965232054614,0.029320538146986288,0.030237021236579446,0.03040785841294275,0.021909092284742217,0.019463361872855203,-0.0074573871300403684,0.013164004968587145,0.013833406435692724,0.013043584765897339,0.012550603961271146,0.01133171101419223,0.014996739461159685,0.01867303718980396,0.01832988276745902,0.020371538932665703,0.018913775574975707,0.016961951162922224,0.01320802563939666,0.01301434857969227,0.012241000998173336,0.010016829954363525,0.012030668354700041,0.023897255833918538,0.026202029599361125,0.026437742959504133,0.026417214836396623,0.029642508163665687,0.03157914983992935,0.03476603119598299,0.06887538688576808,0.01666522667491299,0.011882759072744647,0.026043599187954344
-0.011188374367000407,0.009890551721688883,0.008327546295027199,0.008738536271412982,0.0070826415496047755,0.007124131435493118,0.005505435953021713,0.004935140461354981,0.006224728133760234,0.007551193140856412,0.005040953927675161,0.0063004198904503955,0.006853775074906083,0.005938730641334595,0.00736984818665517,0.008261851986370883,0.013755085853166198,0.02348860370720701,0.02062805861017231,0.019639485576454487,0.021235668316683977,0.019534874595895597,-0.009394346464928977,0.003198296429877504,0.006650218098769028,0.006657426229306954,0.008180787354013223,0.003182860581776401,-0.0006182818119802773,-0.0023427898947588205,-0.0007696503660019221,-0.011257247241240866,-0.06466241372627117,-0.05938420192024985,-0.062402790463312034,0.004803446397065687,0.006084799659230124,0.010139475141592191,0.009954441836625512,0.010947072754668254,0.022828239932685603,0.02522011107640179,0.028426275508956357,0.028183165470424505,0.030380318512901395,0.026593950963800954,0.01573904331369262,0.012711165673375168,0.011777100008759743,0.010184225982085043
-0.18500812729422683,-0.1134532266534394,-0.05966914663566871,-0.00015744762669424024,0.0014404257109341292,0.0011136318674719373,0.00034409398560678706,-0.002259594998501911,-0.002507256030101567,0.0015538743400817887,0.0020617488290795545,0.00045007204054441427,-0.0021637967828305243,-0.07102963124730981,-0.04811890387269692,0.00975175565272778,0.01139532186541318,0.01767112199797765,0.017494422793645364,0.019369272174875586,0.01884149692768533,0.018645419874987607,0.009116823893828105,-0.08859696099298837,-0.09968688334443546,-0.07202538902794475,-0.07893324539484711,-0.12015843800998802,-0.14402569813511001,-0.14778198762805347,-0.12425256045917535,-0.12386049864951375,-0.1284909958262431,-0.11662634958233177,0.0019293840188628092,0.0017349728358172967,0.002364794785580144,0.004767077940153868,0.005872115747266086,0.009909352354419403,0.017016256018360033,0.019578587368067227,0.02615224539910435,0.022663632017657778,0.023364917998681282,0.023205529183767285,0.023968696460078126,0.011595212981006681,0.010381051473041452,0.008937952215000714
-0.2801378593298697,-0.26078513255236574,-0.22628466702930375,-0.19088575815985404,-0.12929111390466452,-0.11095784882019809,-0.13848484573385886,-0.15920532456056646,-0.155036614758991,-0.12149739856084985,-0.09954899867924102,-0.1034532432302563,-0.16419696484522525,-0.19140801906764707,-0.04533090302102089,0.0003542940735571122,0.00371137215780333,0.00833954871358293,0.008054153380062158,0.008570669836071122,-0.010414627034202185,0.0022607680743721905,-0.0004062594507101243,-0.001968415987221936,-0.1788211738577836,-0.21132785696781936,-0.21162085239142456,-0.20295255190310849,-0.15009582769984497,-0.1494284304067328,-0.13794837378011388,-0.16460397791653178,-0.17429244456232595,-0.1458491732667805,-0.06219010518280675,-0.029901592092140793,-0.061118077922876386,-0.05447892784415208,-0.03505227646932273,0.002793976257648766,0.005290336733692222,0.00486222161922863,0.011584641109460024,0.02212197853833326,0.02286194660814699,0.019958493775908123,0.010395390022861148,0.005706816151523219,0.006357151876518573,0.0012604241667915936
-0.28409069582622537,-0.28540829204588536,-0.2944956121074758,-0.2993729694919478,-0.29434808214081193,-0.29726007674133814,-0.2973693702387404,-0.24450919616859176,-0.23632589678457389,-0.23576169057747554,-0.2532520750339022,-0.2586677730506052,-0.2679267337809299,-0.22927746500735885,-0.1462430221383905,-0.0962553814791801,-0.04592386973056475,-0.010092801951075517,-0.0008046479382666275,-0.009776452762028058,-0.08445242065280825,-0.18472721578323098,-0.1645751907186672,-0.19673387261987116,-0.26574358686197286,-0.2832168521257237,-0.26561472408803183,-0.26307946221917194,-0.2571975861318821,-0.25841048359177665,-0.2409711932032287,-0.20784999711858204,-0.22123820253171603,-0.2223541028203072,-0.24210966637467413,-0.21277477939172967,-0.18520617059855898,-0.18306658328628939,-0.17002405244844349,-0.12744726603157472,-0.030415363868352807,0.0007739820407141301,0.005801800881351826,0.00593169793663434,0.007928745945519736,0.005386263235067547,0.003944873285940493,-0.1351712810470496,-0.0752806981224498,-0.10748281655795201
-0.29989800030148384,-0.3,-0.3,-0.3,-0.3,-0.3,-0.3,-0.3,-0.3,-0.3,-0.3,-0.3,-0.3,-0.29228473269276056,-0.25385470233825086,-0.18723389352432762,-0.14719277058281996,-0.14557591989921329,-0.13223738227467977,-0.14254174062918448,-0.2001403733487641,-0.22645114209698225,-0.2449214474411654,-0.28227860961801243,-0.3,-0.3,-0.3,-0.3,-0.3,-0.3,-0.3,-0.2961548147424381,-0.28869684971992626,-0.29591544402090114,-0.3,-0.2936671175908509,-0.2781832218315934,-0.267458948801599,-0.2810949773864789,-0.26441284105851653,-0.2026262114545007,-0.14255410513560704,-0.07630723352461063,-0.05827368100365137,-0.051706279500067176,-0.07198235454639303,-0.1331887309508401,-0.2112939789450698,-0.25969319105105754,-0.2645626378812321
-0.3,-0.3,-0.3,-0.3,-0.3,-0.3,-0.3,-0.3,-0.3,-0.3,-0.3,-0.3,-0.3,-0.3,-0.3,-0.2915698107139092,-0.2532004413820259,-0.24185140972728147,-0.24322558405569134,-0.28229364482815794,-0.28665809394247965,-0.29315527905863664,-0.3,-0.3,-0.3,-0.3,-0.3,-0.3,-0.3,-0.3,-0.3,-0.3,-0.3,-0.3,-0.3,-0.3,-0.29947213844425963,-0.28605257683265645,-0.286127366437406,-0.2775101595592555,-0.26815421312605864,-0.25799173104354955,-0.2160268820246968,-0.19062687019711674,-0.20476569032798558,-0.21024237866263437,-0.24830324114386232,-0.2836585499035241,-0.28452021649062065,-0.28388814766613724
-0.3,-0.3,-0.3,-0.3,-0.3,-0.3,-0.3,-0.3,-0.3,-0.3,-0.3,-0.3,-0.3,-0.3,-0.3,-0.3,-0.3,-0.3,-0.3,-0.3,-0.3,-0.3,-0.3,-0.3,-0.3,-0.3,-0.3,-0.3,-0.3,-0.3,-0.3,-0.3,-0.3,-0.3,-0.3,-0.3,-0.3,-0.3,-0.3,-0.3,-0.3,-0.3,-0.3,-0.29499514587749454,-0.29411875291899603,-0.2949883057735356,-0.3,-0.3,-0.3,-0.3
